# .PCD v0.7 - Point Cloud Data file format
VERSION 0.7
FIELDS x y z
SIZE 4 4 4
TYPE F F F
COUNT 1 1 1
WIDTH 1481
HEIGHT 1
VIEWPOINT 0 0 0 1 0 0 0
POINTS 1481
DATA ascii
-117.17052 25.0483 0.018917043
-116.86461 25.044546 0.015428677
-116.4977 25.051994 0.022446219
-116.28005 25.040644 0.12986326
-115.97112 25.070921 0.13156903
-68.599777 25.044451 0.10579918
-68.257233 25.036898 0.022031205
-68.041672 25.037531 0.016307792
-66.639633 25.02706 0.016212992
-66.443115 25.042616 0.022176357
-66.162979 25.046663 0.019907441
-65.818733 25.032633 0.13148727
-65.677345 24.952005 0.16510612
-43.94091 25.040733 0.12241954
-43.642494 25.05188 0.023103081
-43.362602 25.042532 0.021246839
-43.182667 25.046108 0.015428684
-41.778488 25.03614 0.017095337
-41.552887 25.032682 0.023428639
-41.184532 25.037636 0.1033753
-41.092178 25.014238 0.15773639
1.0914326 25.054424 0.15149705
1.3837265 25.107338 0.015428678
1.6640872 25.029932 0.015428672
1.9673204 25.00333 0.015428669
2.2504897 25.02598 0.0154287
2.5483463 25.032185 0.015428703
2.8589282 25.034046 0.017850248
3.1572042 25.032431 0.022222297
3.4439995 25.037607 0.023682607
3.7302842 25.036098 0.019098442
3.9078081 24.910395 0.015428683
5.0457249 25.021444 0.021262005
5.2514763 25.047171 0.024718573
5.5372424 25.043139 0.022850024
5.8349004 25.048679 0.016709507
6.0864935 25.042366 0.14838378
-165.36493 25.422213 0.16633779
-165.15651 25.364504 0.13447176
-164.88715 25.313978 0.071954951
-164.54329 25.346304 0.017259676
-164.31975 25.295177 0.017457658
-162.98552 25.207062 0.015428682
-162.73886 25.244394 0.015428681
-162.43217 25.283155 0.015428686
-162.14134 25.323553 0.015428676
-161.83948 25.341173 0.016987113
-161.53836 25.343781 0.018668134
-161.25548 25.33869 0.020626459
-160.93924 25.337458 0.023005776
-160.65036 25.339355 0.025351726
-160.34908 25.342421 0.027725447
-160.05104 25.342331 0.02887127
-159.75621 25.346325 0.030968213
-159.44324 25.349569 0.028069606
-159.1635 25.334017 0.025290906
-158.86069 25.341143 0.020322336
-158.55505 25.342245 0.016563438
-158.22992 25.34889 0.01542867
-158.00348 25.354124 0.015428674
-157.66618 25.334393 0.015428683
-157.3026 25.430248 0.01901076
-157.09425 25.368021 0.10876197
-156.75694 25.41367 0.029379871
-156.49496 25.44841 0.02658659
-156.26129 25.47312 0.020883227
-136.00128 25.200396 0.022701409
-135.72581 25.214777 0.024551479
-135.43254 25.231285 0.024141559
-135.14935 25.243729 0.022446236
-134.84114 25.255196 0.024820965
-134.547 25.265314 0.02514296
-134.23741 25.318369 0.026044479
-133.9848 25.322927 0.025773458
-133.63908 25.219057 0.025562001
-133.36592 25.230267 0.02362144
-133.03922 25.242886 0.021428671
-132.73698 25.245747 0.034129947
-132.44753 25.230986 0.095166899
-132.14323 25.223785 0.12377398
-131.84357 25.223755 0.14357418
-131.57422 25.235943 0.071428679
-131.23907 25.253288 0.024464862
-130.96178 25.273317 0.02590997
-130.64821 25.285891 0.027212465
-130.34677 25.283262 0.025065998
-130.04521 25.284328 0.032938376
-129.77225 25.302725 0.03817679
-129.45219 25.307812 0.047817364
-129.16161 25.296989 0.038919188
-128.84781 25.313906 0.024140771
-128.54015 25.363142 0.1194812
-128.26549 25.373455 0.13087419
-127.95298 25.373995 0.1443664
-127.65865 25.386747 0.1363975
-127.34102 25.337597 0.025563765
-127.05422 25.319723 0.033627287
-126.75194 25.302122 0.040829252
-126.44308 25.293888 0.080304094
-126.13549 25.288065 0.091362432
-125.85374 25.285017 0.10404344
-125.54227 25.287909 0.10691203
-125.26616 25.297991 0.10750003
-124.95751 25.307119 0.11075334
-124.67451 25.324257 0.11602671
-124.4922 25.480394 0.21542868
-121.63441 25.398172 0.077650905
-121.34045 25.403324 0.16049534
-121.06155 25.399765 0.10980371
-120.69772 25.421087 0.12301492
-120.41521 25.433983 0.11316451
-120.1869 25.368412 0.15083094
-119.84504 25.280306 0.15104578
-119.5407 25.224541 0.097623788
-119.25639 25.2286 0.094828673
-118.95319 25.221992 0.10182862
-118.62434 25.283594 0.058669731
-118.34676 25.299187 0.04957353
-118.07332 25.320042 0.038990323
-117.68044 25.338064 0.081320241
-117.46413 25.344114 0.034471195
-117.16245 25.351933 0.028762035
-116.86227 25.348127 0.018095339
-116.50425 25.341713 0.024643652
-116.28866 25.342428 0.12287956
-115.98611 25.371109 0.13328581
-68.611649 25.341532 0.11467008
-68.250664 25.336821 0.019898375
-68.047836 25.337654 0.015428673
-66.645058 25.353825 0.017714389
-66.45079 25.346706 0.024736121
-66.158646 25.346785 0.022270771
-65.8526 25.357004 0.14381146
-43.932201 25.33423 0.13225234
-43.648434 25.340708 0.024095302
-43.360779 25.340902 0.022737617
-43.184193 25.332394 0.015428683
-41.782772 25.337358 0.01744548
-41.551552 25.343933 0.023885421
-41.186092 25.338793 0.10552271
-41.092194 25.248966 0.2097144
1.0968807 25.337721 0.15416478
1.340595 25.40892 0.022969656
1.6596723 25.425474 0.015428675
1.9496946 25.433603 0.015428677
2.2794406 25.382032 0.020938875
2.5573766 25.364378 0.019729793
2.8506863 25.359926 0.019746859
3.1564956 25.35894 0.021491144
3.4517875 25.351093 0.023949046
3.7090847 25.348459 0.023172749
5.0788078 25.255392 0.023428682
5.2541652 25.339296 0.024886016
5.5342979 25.349209 0.023216238
5.8300958 25.338884 0.017120259
6.0782523 25.350691 0.14973964
-165.46552 25.653727 0.16542868
-165.22917 25.662668 0.13154812
-164.84247 25.649431 0.017354609
-164.5587 25.629438 0.01674255
-164.38721 25.520395 0.015428683
-162.14746 25.690899 0.015428675
-161.85442 25.640715 0.015428674
-161.53548 25.631536 0.015428684
-161.24405 25.63583 0.015428692
-160.94751 25.643192 0.015818955
-160.64113 25.63633 0.019168533
-160.35255 25.637867 0.022576418
-160.0511 25.643064 0.023635538
-159.75046 25.642708 0.02757385
-159.44597 25.64097 0.02804899
-159.19348 25.629229 0.024871025
-158.84161 25.631897 0.017584395
-158.55832 25.645456 0.017311059
-158.25179 25.65345 0.015567569
-157.9978 25.659714 0.01565339
-157.63535 25.695665 0.017455723
-157.34473 25.685535 0.10677628
-157.03853 25.622286 0.1333276
-156.75488 25.616291 0.066277981
-156.45468 25.632465 0.0239069
-156.15897 25.649847 0.023404822
-155.85274 25.670086 0.022978311
-155.56226 25.690462 0.017315494
-155.23943 25.704153 0.018515944
-154.94914 25.714317 0.022981897
-154.66653 25.729296 0.021240653
-154.36191 25.736965 0.020691827
-154.05467 25.750212 0.017533939
-153.75903 25.75839 0.016628675
-153.47346 25.764771 0.015428687
-153.13506 25.77087 0.018285826
-152.8642 25.773396 0.019428682
-152.54279 25.779219 0.021311032
-152.33887 25.780394 0.028762018
-134.14609 25.519524 0.025863463
-134.02583 25.53524 0.024519581
-127.27219 25.500395 0.022095351
-127.09536 25.500395 0.023849737
-126.3922 25.500395 0.0297144
-126.16932 25.500395 0.02257154
-125.84171 25.507059 0.020190587
-125.54745 25.510864 0.020666772
-125.24982 25.51392 0.01954633
-124.95365 25.52039 0.022257946
-124.62124 25.527063 0.064891033
-124.3511 25.523176 0.14933933
-124.04317 25.539549 0.13806133
-123.74202 25.553038 0.13968396
-123.45328 25.569742 0.12667486
-123.15086 25.584524 0.1310357
-122.84573 25.604116 0.1268415
-122.56423 25.619692 0.11945973
-122.25208 25.637732 0.12086078
-121.95631 25.649954 0.12184839
-121.63166 25.656832 0.12098187
-121.35712 25.668457 0.12016748
-120.99265 25.676552 0.1377051
-120.73494 25.687864 0.12571289
-120.46655 25.696718 0.13805392
-120.1347 25.530396 0.015428684
-119.83385 25.570395 0.015428684
-119.51435 25.701302 0.12721442
-119.25393 25.713839 0.12294406
-118.95028 25.728861 0.13469858
-118.64468 25.717897 0.11248252
-118.34444 25.69825 0.089980744
-118.05825 25.689262 0.091951758
-117.77071 25.59742 0.088708714
-117.46518 25.648418 0.031381
-117.15643 25.65159 0.02796204
-116.86722 25.644793 0.017628668
-116.50884 25.640472 0.02334531
-116.29031 25.64443 0.13007806
-116.00405 25.648817 0.13569184
-68.59861 25.645815 0.11095698
-68.253754 25.64975 0.022115946
-68.051773 25.647137 0.018125298
-66.652008 25.632217 0.019729745
-66.453964 25.64023 0.025274806
-66.158257 25.633896 0.022553638
-65.859558 25.637344 0.14198245
-43.87542 25.649328 0.13967361
-43.651642 25.648605 0.026108764
-43.361584 25.640234 0.024271831
-43.186195 25.630396 0.015428683
-41.78273 25.64797 0.019528087
-41.55695 25.648411 0.023352131
-41.181858 25.643354 0.10644202
-41.092194 25.560394 0.13542868
1.1057025 25.592001 0.16118304
1.3560302 25.610172 0.032095362
1.6581656 25.621098 0.018464386
1.9582216 25.613129 0.017577434
2.2535415 25.613504 0.030587915
2.5590227 25.615734 0.030008087
2.8475871 25.619383 0.028327171
3.1502252 25.606525 0.031441737
3.4527948 25.612408 0.037549067
3.7065144 25.63241 0.044952493
3.9724748 25.773729 0.25409541
5.2624049 25.644773 0.024822596
5.5417299 25.644619 0.024399243
5.8349967 25.645597 0.017660115
6.0802455 25.642292 0.15536007
-165.31219 26.000395 0.23042867
-165.23459 25.943451 0.12502693
-164.84479 25.947834 0.019104391
-164.61197 25.932917 0.018559109
-163.22552 26.073729 0.022095351
-163.03111 26.038797 0.022214409
-162.73587 25.991568 0.024463402
-162.45164 25.975348 0.02619252
-162.15567 25.960995 0.02335866
-161.85529 25.965513 0.021256002
-161.54875 25.965826 0.02324681
-161.24976 25.945604 0.021911822
-160.95229 25.939209 0.016360926
-160.6483 25.961245 0.022194218
-160.35748 25.957867 0.023084419
-160.05263 25.952568 0.021384751
-159.7495 25.936653 0.023209605
-159.44907 25.935982 0.023977457
-159.18637 25.938202 0.02058425
-158.83954 25.943916 0.016487524
-158.54816 25.951279 0.021173341
-158.25945 25.9604 0.019445091
-157.95892 25.955215 0.015428687
-157.58533 25.948938 0.074876904
-157.48293 25.9303 0.18194032
-156.63463 25.828176 0.15429045
-156.46431 25.828955 0.1574868
-156.14865 25.851881 0.1451636
-155.83949 25.878029 0.14205824
-155.56013 25.895132 0.13478485
-155.23833 25.904026 0.13028829
-154.94682 25.912769 0.12139668
-154.65903 25.925339 0.1214813
-154.34642 25.939211 0.12120901
-154.0425 25.952816 0.11779276
-153.7426 25.971457 0.12277806
-153.45964 25.974586 0.1131298
-153.14992 25.982204 0.11028418
-152.84755 25.991045 0.10990541
-152.54356 26.000093 0.10793326
-152.27759 26.003326 0.093488693
-151.95833 26.010086 0.080260433
-151.65083 25.977831 0.037088376
-151.33397 25.956776 0.021943811
-151.03935 25.969788 0.024081128
-150.75615 25.97967 0.022131417
-150.44368 25.990412 0.021619193
-150.14557 26.003241 0.019749699
-149.86452 26.013065 0.023428706
-149.56639 26.019205 0.018993026
-149.26514 26.016851 0.018970335
-148.9299 26.025356 0.02316593
-148.65335 26.033455 0.025556926
-148.37312 26.043242 0.023120983
-148.07664 26.046432 0.0208255
-147.75555 26.053631 0.024044055
-147.46793 26.063551 0.02542867
-147.16194 26.072189 0.022608168
-146.87431 26.071821 0.021857256
-146.56329 26.078169 0.022095352
-146.2872 26.080395 0.025428684
-146.06219 26.080395 0.035428684
-121.87219 25.800394 0.025428683
-121.63086 25.800392 0.020762019
-121.29993 25.819344 0.086305901
-121.08915 25.884024 0.14310543
-120.744 25.846823 0.069714427
-120.37791 25.824541 0.13083099
-120.16965 25.85681 0.19318062
-119.84196 25.856054 0.1908302
-119.58234 25.880783 0.11025859
-119.25844 25.918606 0.015650922
-118.93906 25.912989 0.018442422
-118.64992 25.916676 0.020049354
-118.34404 25.929455 0.026903315
-118.063 25.921776 0.030450709
-117.7461 25.87656 0.026164588
-117.45036 25.914179 0.025501635
-117.16325 25.948378 0.025610484
-116.86923 25.942856 0.019395627
-116.51886 25.944363 0.024077278
-116.2933 25.942772 0.13326646
-116.02024 25.955454 0.13812533
-68.597374 25.938358 0.11194141
-68.260704 25.926067 0.022074979
-68.052216 25.936005 0.017135987
-66.649284 25.936049 0.015428674
-66.450012 25.931009 0.017061368
-66.152946 25.939577 0.015428715
-65.862503 25.937395 0.14362817
-43.885757 25.931215 0.13829698
-43.648315 25.930819 0.024115516
-43.36623 25.931089 0.023200378
-43.192196 25.923729 0.015428682
-41.792778 25.941105 0.024140771
-41.55336 25.938389 0.025565654
-41.198051 25.940395 0.10281023
3.9875484 25.91366 0.26381281
5.0878077 26.02347 0.026197912
5.2436457 25.93597 0.026703177
5.5518761 25.935921 0.026065921
5.8253202 25.943384 0.02004935
6.0786462 25.932261 0.15120111
-165.31215 26.342833 0.17737994
-165.22386 26.233389 0.11801811
-164.85155 26.244532 0.016605193
-164.64082 26.228403 0.016902354
-163.52069 26.296762 0.024519593
-163.34355 26.262396 0.024414141
-163.05611 26.237429 0.024604464
-162.75119 26.238865 0.026116487
-162.44466 26.244295 0.026975613
-162.15671 26.238043 0.024389043
-161.8521 26.233023 0.022369808
-161.5558 26.236801 0.023830708
-161.26384 26.238539 0.020596443
-160.94283 26.244461 0.020527996
-160.6489 26.227663 0.022723472
-160.35155 26.238417 0.025711432
-160.07338 26.230936 0.023187837
-159.74503 26.223475 0.02103419
-159.45078 26.239792 0.024361655
-159.16721 26.258247 0.022117391
-158.84988 26.259449 0.020387368
-158.54692 26.241034 0.023309065
-158.26389 26.236113 0.022555064
-157.95122 26.240717 0.015518002
-157.5743 26.249163 0.10111459
-157.4874 26.210928 0.1908226
-152.48819 26.100397 0.24742869
-152.23282 26.100378 0.22589023
-151.93283 26.101202 0.21209532
-151.63638 26.10626 0.2016864
-151.34724 26.278923 0.11707499
-151.05042 26.28425 0.1123435
-150.76556 26.262295 0.092494637
-150.44081 26.173491 0.12052938
-150.14415 26.155222 0.1501756
-149.85915 26.165974 0.14553006
-149.55495 26.179203 0.13071573
-149.24857 26.191971 0.13820098
-148.94313 26.203838 0.13512935
-148.64709 26.218761 0.13321857
-148.35042 26.228239 0.1198431
-148.06329 26.241005 0.11085898
-147.75111 26.260469 0.11521449
-147.44305 26.275112 0.11536119
-147.16467 26.286659 0.10663257
-146.85338 26.285769 0.097906575
-146.5511 26.302202 0.10209526
-146.25797 26.293171 0.072552562
-145.97047 26.263773 0.034154177
-145.65398 26.260199 0.024717361
-145.34494 26.253513 0.021428701
-145.04047 26.249884 0.017507924
-144.7547 26.259682 0.020597212
-144.45175 26.255352 0.018937482
-144.15721 26.257624 0.019336764
-143.84718 26.264286 0.020353343
-143.53781 26.270491 0.023004416
-143.28157 26.277382 0.019021522
-142.95905 26.286499 0.020428702
-142.65268 26.300102 0.020608559
-142.34406 26.301355 0.020706479
-142.05302 26.31267 0.020770324
-141.76097 26.317125 0.017673567
-141.45451 26.326111 0.019584516
-141.15749 26.336853 0.019226139
-140.84679 26.342276 0.018722787
-140.57681 26.345259 0.018401645
-140.25633 26.350391 0.018876953
-139.95529 26.355299 0.020918874
-139.66875 26.361536 0.021142967
-139.34386 26.372894 0.016262017
-139.09801 26.374582 0.023170618
-138.77663 26.380398 0.017650904
-138.49469 26.380398 0.015428684
-138.27219 26.380394 0.015428683
-137.85219 26.380394 0.015428683
-121.31885 26.120394 0.015428682
-121.02483 26.143551 0.015428683
-120.7432 26.167395 0.015428683
-120.4698 26.179594 0.015428685
-120.01219 26.240395 0.015428683
-119.80102 26.235104 0.015428685
-119.53565 26.239834 0.01542867
-119.26843 26.244638 0.015428672
-118.93468 26.242844 0.015428692
-118.64681 26.24225 0.01636889
-118.33867 26.243711 0.022752568
-118.08552 26.239428 0.024470547
-117.32934 26.111826 0.018285826
-117.12201 26.202702 0.021582557
-116.86983 26.246864 0.021644926
-116.52942 26.239777 0.026150884
-116.30141 26.237627 0.13375266
-116.04187 26.25355 0.14858182
-68.601578 26.245365 0.11315644
-68.256737 26.255093 0.022385154
-68.048607 26.250166 0.017981859
-67.007751 26.335951 0.015428684
-66.66098 26.240393 0.015428675
-66.449768 26.242043 0.018263942
-66.152328 26.246225 0.017939167
-65.890617 26.23937 0.13746504
-43.893814 26.241257 0.14228585
-43.64526 26.236046 0.017948387
-43.366184 26.22994 0.018595371
-43.192188 26.173729 0.015428682
-41.795517 26.235451 0.023871288
-41.556034 26.239779 0.026347296
-41.209122 26.238749 0.10278024
4.006496 26.231215 0.2803466
5.0655098 26.261992 0.02646316
5.2332621 26.246666 0.034767538
5.55969 26.246323 0.13962649
5.8215265 26.12714 0.11659148
6.0560842 26.121893 0.16729073
-165.31407 26.556665 0.16622415
-165.21465 26.520084 0.083460502
-164.84573 26.545654 0.019398717
-164.65887 26.54151 0.016817562
-163.51219 26.410395 0.025428683
-163.34213 26.52746 0.0242077
-163.06261 26.533089 0.022027299
-162.74449 26.530563 0.022800243
-162.44653 26.539663 0.024030786
-162.159 26.532896 0.022997692
-161.85265 26.532974 0.018582536
-161.55031 26.530106 0.021493165
-161.24562 26.538906 0.023224164
-160.95491 26.539722 0.02278495
-160.6516 26.538609 0.021074913
-160.34956 26.539064 0.024069941
-160.06212 26.540192 0.022168588
-159.74379 26.540035 0.018866194
-159.45442 26.542671 0.024268422
-159.14996 26.523869 0.025860731
-158.84474 26.531527 0.025091562
-158.5544 26.540133 0.025793627
-158.25708 26.541153 0.025233531
-157.95461 26.55409 0.020907199
-157.58562 26.544468 0.10974648
-157.48647 26.517538 0.17828582
-151.02385 26.400393 0.15515092
-150.7249 26.401529 0.1684368
-150.54294 26.405396 0.17721447
-146.47932 26.400393 0.24542868
-146.19949 26.403471 0.20504409
-145.96494 26.409683 0.18812491
-145.65288 26.417728 0.17283449
-145.34419 26.425053 0.15747644
-145.03961 26.439989 0.15594298
-144.76147 26.447912 0.14809835
-144.44426 26.457151 0.1489252
-144.1575 26.462603 0.13640246
-143.84793 26.474697 0.13943967
-143.53587 26.484444 0.13483636
-143.26662 26.497181 0.13222657
-142.93962 26.502892 0.1273056
-142.64828 26.513557 0.12441319
-142.35214 26.522402 0.11734509
-142.04625 26.538738 0.12467319
-141.76404 26.543013 0.11576479
-141.44893 26.552654 0.11690828
-141.13873 26.557095 0.11316923
-140.84235 26.569424 0.11046778
-140.56265 26.576517 0.11514889
-140.24936 26.57897 0.10441303
-139.9502 26.590227 0.10964555
-139.65607 26.592897 0.098016329
-139.34663 26.60273 0.083516262
-139.07582 26.584051 0.057084698
-138.76186 26.561991 0.025279436
-138.46646 26.546331 0.020942224
-138.15134 26.545364 0.0170782
-137.83792 26.545401 0.020571537
-137.5743 26.548979 0.02056486
-137.23595 26.565716 0.018440759
-136.94073 26.575188 0.022449076
-136.6563 26.584295 0.023895802
-136.37257 26.604626 0.021028722
-136.04251 26.618061 0.019149616
-135.76663 26.631165 0.022804597
-135.4641 26.64814 0.017041579
-135.15178 26.660398 0.01542868
-134.79337 26.605806 0.023857279
-134.56041 26.583477 0.024483772
-134.26964 26.598125 0.020754805
-133.95363 26.61376 0.021211848
-133.66798 26.635942 0.020277154
-133.35712 26.641691 0.023220878
-133.06677 26.656757 0.019519586
-132.75702 26.668674 0.016807996
-132.44748 26.665104 0.016605154
-132.14268 26.657791 0.019776506
-131.84998 26.650673 0.023484226
-131.54919 26.656153 0.022095339
-131.27652 26.665182 0.021515639
-130.98151 26.679058 0.022095347
-120.68006 26.633951 0.1062333
-120.44733 26.604239 0.10699496
-120.23323 26.58676 0.15291251
-119.81573 26.653334 0.015428682
-119.51268 26.603985 0.015428682
-119.27927 26.577682 0.015428675
-118.92287 26.558537 0.015428672
-118.64131 26.541025 0.015531799
-118.33918 26.538212 0.020835822
-118.10282 26.527451 0.021866454
-117.03039 26.431305 0.020883227
-116.84669 26.53212 0.021340663
-116.53844 26.543081 0.024038268
-116.30809 26.539566 0.13308914
-116.06295 26.560032 0.14353679
-68.608391 26.538176 0.10393203
-68.257912 26.533676 0.023451552
-68.048363 26.533806 0.017019583
-67.237907 26.628967 0.015428684
-67.063782 26.54039 0.015428683
-66.656364 26.554564 0.017650897
-66.440918 26.554714 0.022571489
-66.152351 26.558327 0.022928625
-65.896965 26.546154 0.13730721
-43.902172 26.539335 0.13954921
-43.653023 26.540602 0.017088115
-43.358391 26.542316 0.016689979
-41.800484 26.580681 0.091768526
-41.559647 26.497885 0.033692826
-41.199993 26.495676 0.11577953
4.0261421 26.615395 0.29542872
5.0878077 26.594938 0.024519593
5.2802744 26.588377 0.052118827
5.4791598 26.510323 0.15721966
-165.32057 26.811598 0.15739296
-165.17946 26.857479 0.094362035
-164.84912 26.825716 0.01861053
-164.64259 26.8452 0.017200824
-163.2877 26.830042 0.024403024
-163.07045 26.854296 0.019671101
-162.74734 26.838923 0.016149439
-162.46021 26.832006 0.019241625
-162.1615 26.836163 0.016194262
-161.84746 26.82671 0.015654689
-161.62111 26.796865 0.016605143
-161.23218 26.710087 0.01906505
-160.91194 26.796585 0.017571529
-160.64929 26.838837 0.016262041
-160.34348 26.835218 0.023483258
-160.12219 26.818077 0.021475211
-159.73474 26.710712 0.017364167
-159.44849 26.712633 0.021551127
-159.14578 26.735388 0.021539783
-158.82281 26.790997 0.023088282
-158.5497 26.832754 0.025814263
-158.25089 26.841928 0.025944632
-157.95036 26.842388 0.025118399
-157.60364 26.835962 0.11248098
-157.49219 26.931305 0.16451959
-139.56076 26.700394 0.22400011
-139.31348 26.701693 0.21779223
-139.04829 26.704592 0.20458649
-138.7431 26.710768 0.17935561
-138.44626 26.721453 0.16675875
-138.15462 26.730358 0.15258072
-137.83423 26.743156 0.15261181
-137.56401 26.75791 0.146726
-137.24483 26.770273 0.14324318
-136.94762 26.777235 0.13728142
-136.64906 26.787256 0.13387796
-136.35295 26.800671 0.13367507
-136.04607 26.808409 0.12256557
-135.75644 26.819433 0.12699287
-135.44962 26.831247 0.12299976
-135.14769 26.841822 0.12275433
-134.84386 26.848549 0.12246819
-134.55096 26.858335 0.1161684
-134.25311 26.871248 0.12253501
-133.94325 26.862818 0.10860781
-133.66685 26.865713 0.099256687
-133.34726 26.874228 0.11204772
-133.04115 26.8822 0.10727895
-132.74326 26.905085 0.10935163
-132.4615 26.909985 0.099128745
-132.14824 26.892097 0.074481614
-131.85538 26.85433 0.043800753
-131.54846 26.841057 0.03268978
-131.2523 26.843077 0.024562506
-130.9518 26.843332 0.023660153
-130.65659 26.851408 0.020905862
-130.3532 26.859797 0.021211807
-130.0442 26.855864 0.024746818
-129.76784 26.866396 0.024070637
-129.45264 26.876839 0.023075752
-129.15105 26.879669 0.022397013
-128.85303 26.889194 0.024474302
-128.5573 26.900114 0.022906154
-128.25568 26.892569 0.024946785
-127.94441 26.884705 0.025681879
-127.6557 26.900974 0.025075769
-127.35528 26.908407 0.022337805
-127.05765 26.912743 0.022628721
-126.75906 26.912317 0.022946438
-126.4533 26.915615 0.02021501
-126.14925 26.919044 0.019024177
-125.84354 26.921022 0.02120995
-125.56608 26.927937 0.023610532
-125.2635 26.932449 0.019525057
-124.95414 26.93712 0.017395888
-124.62847 26.943544 0.020000098
-124.3475 26.950514 0.024369849
-124.0957 26.969807 0.021311034
-123.81618 26.980396 0.023428684
-120.6933 26.728247 0.087928675
-120.39096 26.754776 0.13855369
-120.22425 26.795731 0.14664203
-119.87627 26.901112 0.10084039
-119.53026 26.816248 0.015428673
-119.24986 26.838789 0.01542867
-118.94351 26.832359 0.015428672
-118.63453 26.839457 0.01884537
-118.34604 26.838982 0.023428638
-118.11475 26.837711 0.022895345
-116.78651 26.826824 0.021300243
-116.54761 26.842428 0.024981599
-116.30635 26.842611 0.12967886
-116.07963 26.843336 0.16758554
-68.603661 26.756443 0.11450919
-68.21608 26.820976 0.10577534
-68.055946 26.894094 0.091253936
-67.512192 26.980394 0.015428683
-67.335457 26.857853 0.015428676
-67.063515 26.836391 0.015428687
-66.662582 26.835588 0.020745127
-66.463341 26.852516 0.086897098
-66.166176 26.76326 0.027514258
-65.901161 26.763651 0.14108239
-43.911396 26.843426 0.13456412
-43.647987 26.845812 0.016992504
-43.364056 26.847309 0.017736409
-41.78756 26.837849 0.11945992
-41.4599 26.853718 0.1963708
-41.377274 26.85535 0.20675611
3.206841 26.950415 0.12962219
3.4444759 26.946854 0.022984227
3.6954556 26.941574 0.052487496
3.9714434 26.847063 0.27239841
5.0798082 26.862799 0.016228683
5.3038087 26.826178 0.070975751
5.4571605 26.858036 0.13307059
5.8644743 26.959728 0.026095342
6.0148849 26.963781 0.16527486
-165.07402 27.135332 0.14500371
-164.84779 27.133886 0.016021268
-164.59085 27.154884 0.017095337
-163.23875 27.071091 0.019614726
-163.0507 27.120266 0.020170934
-162.74745 27.140444 0.021152126
-162.46602 27.127539 0.0188279
-162.15321 27.142918 0.015428694
-161.85234 27.140118 0.015428683
-161.53976 27.197502 0.015428672
-161.24666 27.192583 0.01542867
-160.93567 27.165607 0.015913544
-160.64244 27.157515 0.021502741
-160.34744 27.143356 0.02525421
-160.14828 27.152121 0.023866205
-158.73343 27.157274 0.022928674
-158.56178 27.143707 0.027349155
-158.24168 27.127087 0.0273678
-157.95654 27.130138 0.023603026
-157.60074 27.146225 0.12379393
-132.71219 27.000395 0.26876202
-132.43784 27.000383 0.24855374
-132.13701 27.002295 0.21100765
-131.84581 27.005806 0.19918706
-131.55203 27.011734 0.17649525
-131.24707 27.026693 0.15807565
-130.96382 27.105742 0.075695351
-130.65329 27.133965 0.024011657
-130.35043 27.132307 0.02624345
-130.02768 27.086843 0.12099695
-129.76288 27.085594 0.13849704
-129.45633 27.097921 0.13042855
-129.15756 27.108707 0.12831551
-128.84659 27.11941 0.12814522
-128.56371 27.126802 0.11890536
-128.26276 27.135881 0.12587318
-127.94722 27.143032 0.12561734
-127.6553 27.154715 0.12631983
-127.33861 27.159218 0.11550646
-127.05891 27.162106 0.10588174
-126.74848 27.173716 0.11152618
-126.44728 27.184866 0.10394131
-126.1466 27.192616 0.10611688
-125.8438 27.194784 0.10012406
-125.56855 27.19458 0.092363618
-125.26395 27.186161 0.069502734
-124.96249 27.169069 0.035083856
-124.65268 27.133865 0.024825212
-124.33479 27.136568 0.028137667
-124.06565 27.143463 0.024089605
-123.75562 27.139727 0.024588957
-123.45534 27.160591 0.022415582
-123.1494 27.171885 0.022424556
-122.8544 27.182148 0.024643658
-122.56232 27.183699 0.027762018
-122.25447 27.196054 0.024770824
-121.94776 27.210609 0.024081193
-121.64181 27.212849 0.023939341
-121.36786 27.219671 0.023285862
-121.06209 27.222292 0.019849721
-120.74363 27.220612 0.017149102
-120.44615 27.210443 0.020937698
-120.14133 27.16629 0.084198698
-119.87823 27.15592 0.11918801
-119.5471 27.186644 0.017998543
-119.25179 27.176723 0.019504551
-118.9571 27.170525 0.019154221
-118.64099 27.14517 0.018748201
-118.34625 27.139212 0.023209456
-118.12624 27.132961 0.022423249
-117.82886 27.280394 0.015428684
-116.74765 27.143122 0.019368066
-116.54832 27.140219 0.024537558
-116.29793 27.14382 0.12958859
-116.08904 27.124393 0.19756202
-70.351089 27.136145 0.15033779
-70.035225 27.12545 0.13426925
-69.726501 27.147371 0.12974334
-69.455101 27.155443 0.13375591
-69.141808 27.164225 0.14108372
-68.865463 27.176233 0.13844171
-68.441299 27.216627 0.2257317
-68.299362 27.151787 0.19727676
-68.05957 27.137688 0.11717431
-67.577003 27.179998 0.017428678
-67.376236 27.131952 0.017303675
-67.039108 27.168594 0.015428673
-66.712349 27.163153 0.019005913
-66.533409 27.139706 0.16103522
-66.188072 27.223751 0.19609937
-65.78479 27.21044 0.14876196
-65.692192 27.208395 0.25142869
-43.917519 27.103312 0.13851546
-43.6409 27.12166 0.045465555
-43.370796 27.166031 0.06889718
-41.777378 27.140732 0.12182152
-41.481174 27.156378 0.19510143
-41.366096 27.148237 0.21222113
3.1499839 27.167345 0.12977377
3.4447861 27.140045 0.020445842
3.6591215 27.147057 0.016438771
5.0651064 27.165798 0.015428683
5.247468 27.14073 0.016530417
5.5459566 27.142067 0.015521307
5.8666816 27.182867 0.058553685
6.0164657 27.144617 0.16497821
-165.09109 27.441544 0.14431749
-164.84175 27.439741 0.015920471
-164.53864 27.443737 0.020942235
-164.35248 27.498892 0.01995698
-163.23219 27.580395 0.015428683
-163.03285 27.42861 0.0154287
-162.75253 27.435593 0.015428702
-162.45493 27.434996 0.015428683
-162.15889 27.425531 0.015428669
-161.87106 27.42485 0.015428676
-161.53517 27.44249 0.01542867
-161.24799 27.434118 0.015428673
-160.9489 27.432613 0.015781637
-160.64937 27.433907 0.025268648
-160.35037 27.434439 0.030208044
-160.15536 27.433989 0.024772966
-158.74055 27.425014 0.01881329
-158.55237 27.426498 0.022498123
-158.25851 27.418755 0.020960581
-157.94623 27.433434 0.020154694
-157.60817 27.446106 0.13273522
-130.91847 27.333878 0.15582854
-130.65619 27.348972 0.14888205
-130.35501 27.361853 0.15035494
-130.15549 27.368027 0.15714745
-125.75219 27.300394 0.17542869
-125.51907 27.300407 0.19991146
-125.23496 27.301855 0.19876203
-124.93501 27.30661 0.18306497
-124.64643 27.317427 0.159978
-124.34042 27.325968 0.16603869
-124.05894 27.33477 0.15307565
-123.7634 27.347443 0.1540378
-123.45201 27.360123 0.14425407
-123.14114 27.372721 0.14189626
-122.85886 27.38203 0.13724263
-122.56221 27.393822 0.14786108
-122.2467 27.403574 0.13567948
-121.95315 27.411449 0.12736052
-121.64939 27.421831 0.12112653
-121.36455 27.429279 0.11851684
-121.06166 27.441851 0.1183318
-120.75198 27.453735 0.11794655
-120.45121 27.419708 0.12628472
-120.18348 27.36972 0.14646116
-119.87425 27.428732 0.14473575
-119.55122 27.432234 0.017150031
-119.23959 27.430679 0.021269917
-118.95589 27.433491 0.019694399
-118.65562 27.437487 0.020293524
-118.34145 27.442923 0.023679296
-118.06993 27.440813 0.019794865
-117.77739 27.445351 0.020017441
-116.73711 27.450262 0.020360177
-116.54704 27.439394 0.024373371
-116.27076 27.447744 0.12989585
-116.09225 27.433416 0.21225411
-70.614067 27.507191 0.14882319
-70.397682 27.436029 0.12676556
-70.038788 27.452042 0.015648451
-69.736778 27.442995 0.016672235
-69.447105 27.441216 0.017150026
-69.153061 27.446918 0.025703156
-68.855598 27.443623 0.02493684
-68.454201 27.463221 0.19518559
-68.332191 27.428293 0.15915209
-68.048988 27.44409 0.12193727
-67.679321 27.451075 0.043837756
-67.351227 27.449701 0.015738748
-67.050598 27.445827 0.016016914
-66.683006 27.458654 0.056747317
-66.521988 27.443188 0.15216842
-66.217079 27.452906 0.19367634
-65.782448 27.416525 0.13896604
-65.692192 27.300394 0.07542868
-43.860565 27.537971 0.19278024
-43.708611 27.525509 0.1248697
-43.312538 27.430763 0.15073277
-41.784702 27.415335 0.094081387
-41.62624 27.488886 0.15156354
-41.237022 27.572124 0.080716021
-40.964699 27.577869 0.14001204
-40.643154 27.578863 0.17282596
-40.365589 27.577673 0.16951957
-40.058037 27.578566 0.17265947
-39.712997 27.579584 0.17926709
-39.497814 27.577093 0.17402244
3.1363435 27.438345 0.14056171
3.4500883 27.439354 0.020770676
3.6667554 27.444778 0.016832177
5.0560055 27.427944 0.015428675
5.2501578 27.441769 0.01652116
5.54529 27.441189 0.015863502
5.9248114 27.430439 0.1228458
6.0196419 27.443443 0.16156121
-165.11432 27.755016 0.14745605
-164.84174 27.746431 0.01542867
-164.53702 27.737757 0.018472193
-164.26497 27.76285 0.020883229
-164.06137 27.847059 0.017928686
-163.3922 27.680395 0.015428683
-162.99039 27.723251 0.015428672
-162.75716 27.736908 0.015428694
-162.45686 27.726797 0.015428669
-162.16443 27.74291 0.01542867
-161.85194 27.741062 0.015428672
-161.54825 27.73967 0.01542867
-161.25075 27.74407 0.015428674
-160.93875 27.742331 0.018896921
-160.65034 27.739973 0.03086907
-160.3436 27.735584 0.032246817
-160.16275 27.731846 0.025990481
-158.74904 27.744766 0.018241173
-158.55545 27.737709 0.021477062
-158.25435 27.736752 0.016958764
-157.96156 27.732435 0.017581191
-157.61922 27.731094 0.13653964
-119.8952 27.728699 0.14449276
-119.54581 27.691145 0.015428672
-119.24361 27.731312 0.015621948
-118.95314 27.738914 0.015428714
-118.64175 27.737425 0.018064357
-118.34416 27.732573 0.023266476
-118.06644 27.73881 0.019413063
-117.8042 27.731863 0.019406617
-116.74263 27.749941 0.020655943
-116.54753 27.745562 0.026609382
-116.26442 27.738947 0.13250856
-116.09219 27.661396 0.21042868
-70.668434 27.76223 0.15328799
-70.345863 27.747129 0.015428671
-70.046715 27.742588 0.015897421
-69.745369 27.739008 0.015532333
-69.445953 27.712227 0.016253455
-69.136841 27.719601 0.021834923
-68.841591 27.722328 0.020932017
-68.498634 27.703171 0.12299135
-68.257912 27.733992 0.12023439
-68.004128 27.713644 0.11676016
-67.661903 27.734386 0.019357283
-67.353775 27.747601 0.021468315
-67.077423 27.731562 0.019095348
-66.656487 27.729765 0.11235581
-66.488068 27.732342 0.13072278
-66.205795 27.695084 0.16454364
-65.807693 27.792986 0.13902624
-43.853001 27.760405 0.16999091
-43.723019 27.727959 0.12412428
-43.366211 27.744768 0.12368561
-41.800488 27.729584 0.021386139
-41.553379 27.734489 0.025824696
-41.219372 27.706964 0.068229996
-40.953247 27.677588 0.095978849
-40.652977 27.672594 0.099551894
-40.352627 27.678059 0.10034051
-40.049492 27.673164 0.11136975
-39.755898 27.669586 0.1097144
-39.461483 27.703621 0.14196344
3.138999 27.741789 0.13888663
3.4501157 27.739256 0.016197953
3.6724629 27.742285 0.01594591
5.0716186 27.724686 0.016857252
5.2586808 27.743761 0.023133559
5.5418978 27.740362 0.021152122
5.9168572 27.73666 0.10809343
6.0182056 27.742334 0.16121668
-170.27219 28.180395 0.20876203
-169.90419 28.040394 0.17542869
-169.59506 28.160397 0.16400011
-169.35718 28.095396 0.16042867
-169.0002 28.180395 0.19542868
-168.81619 28.136395 0.13542868
-168.27219 28.140392 0.15542868
-165.13618 28.039217 0.14616674
-164.82448 28.027437 0.01542867
-164.53717 28.048485 0.017273372
-164.24614 28.042734 0.024178639
-163.96506 28.043798 0.02460023
-163.67184 28.096415 0.02260519
-163.35381 28.124458 0.021446386
-163.03362 28.093937 0.021526277
-162.75455 28.067694 0.019112924
-162.45029 28.089111 0.021863459
-162.17601 28.092955 0.01938081
-161.84834 28.096003 0.019557737
-161.5497 28.067429 0.016949173
-161.24802 28.066761 0.018272322
-160.95224 28.069164 0.020139433
-160.64955 28.056475 0.025904829
-160.34995 28.060789 0.028070781
-160.09203 28.080557 0.020674594
-159.74025 28.129246 0.015428673
-159.46082 28.13312 0.016110489
-159.1922 28.156294 0.015941503
-158.75693 28.043612 0.020374905
-158.5562 28.03907 0.023219828
-158.24583 28.050486 0.018747857
-157.96849 28.037918 0.016685845
-157.62373 28.034805 0.14311212
-119.90425 28.048861 0.15004702
-119.47269 28.091167 0.015428682
-119.23837 28.031723 0.015428674
-118.94044 28.039816 0.015547742
-118.64532 28.047234 0.017445527
-118.34943 28.05081 0.023617616
-118.07144 28.032156 0.019913957
-117.82118 28.013927 0.015624749
-116.7559 28.054466 0.023290778
-116.55055 28.039944 0.024936857
-116.27243 28.038647 0.13564733
-70.656654 28.050213 0.14133677
-70.364555 28.078478 0.022171961
-70.06356 28.041473 0.015563819
-69.83477 27.943619 0.015428687
-69.412193 27.900394 0.015428683
-69.064613 28.021082 0.015428686
-68.837097 28.039169 0.015531271
-68.55497 28.040419 0.016207941
-68.235832 28.051834 0.021409947
-67.96418 28.045259 0.022951568
-67.648659 28.049286 0.022069884
-67.371468 28.034931 0.02538128
-67.059464 28.04178 0.025083875
-66.718384 28.045452 0.01636325
-66.450096 28.038839 0.01652116
-66.156525 28.037989 0.01570021
-65.820297 28.040421 0.13178448
-43.911598 28.026957 0.15354495
-43.663948 28.06325 0.12189925
-43.413891 28.037914 0.10729402
-41.80909 28.038288 0.017428715
-41.552475 28.033907 0.022716768
-41.250248 28.040373 0.024987826
-40.957897 28.028116 0.024065016
-40.650486 28.023464 0.02147226
-40.345367 28.022104 0.022663925
-40.050701 28.036465 0.025118399
-39.757336 28.046228 0.0246643
-39.420319 28.006937 0.1093401
-39.19117 28.06988 0.14707047
3.138731 28.036364 0.1408346
3.4480748 28.041063 0.015517212
3.6728079 28.041113 0.01542867
5.0853076 28.027895 0.020428684
5.2547932 28.043076 0.024633475
5.5428052 28.045664 0.024448261
5.9173532 28.04023 0.10521055
6.0192223 28.042011 0.162792
-170.41383 28.315393 0.14876203
-170.3622 28.215393 0.12542869
-168.6122 28.323252 0.16685726
-167.13219 28.331821 0.15542868
-166.90622 28.264395 0.1574287
-166.7722 28.22373 0.16542868
-166.15887 28.307064 0.16876201
-165.63791 28.348967 0.19828582
-165.37048 28.415174 0.18064606
-165.17534 28.333384 0.12611938
-164.81636 28.352118 0.015428669
-164.54823 28.323973 0.016302504
-164.26343 28.311487 0.019065078
-163.94991 28.323875 0.018681714
-163.64809 28.31986 0.020873748
-163.35466 28.324724 0.02366942
-163.05379 28.3241 0.020073259
-162.74326 28.327911 0.020285811
-162.4438 28.334661 0.024037564
-162.17961 28.328161 0.022750683
-161.84703 28.326447 0.021188676
-161.55388 28.330311 0.017117608
-161.24731 28.33234 0.019178677
-160.95087 28.3267 0.021069676
-160.65169 28.339876 0.025179895
-160.35246 28.343367 0.025616461
-160.05852 28.339106 0.018180033
-159.74213 28.339334 0.015711732
-159.45006 28.334948 0.019443275
-159.14786 28.34086 0.02083406
-158.84433 28.350782 0.023589548
-158.5558 28.353216 0.025155425
-158.26761 28.335548 0.020319184
-157.97279 28.333591 0.015559405
-157.62598 28.33094 0.1452831
-119.85903 28.355928 0.15229258
-119.62106 28.366987 0.083798677
-119.24386 28.347687 0.01542869
-118.94074 28.344448 0.016514692
-118.63843 28.342344 0.020527991
-118.35192 28.339903 0.02437214
-118.1339 28.300627 0.020134548
-117.86418 28.240393 0.015428683
-116.77533 28.343565 0.023121022
-116.55273 28.340673 0.02391969
-116.28365 28.338797 0.13603464
-70.647743 28.285204 0.13520192
-70.374496 28.366945 0.066141509
-70.135902 28.338346 0.015428671
-69.028854 28.287058 0.015428684
-68.824532 28.327797 0.015428694
-68.534042 28.354794 0.019598285
-68.252419 28.340569 0.025451344
-67.963646 28.336668 0.028503075
-67.657974 28.34107 0.026726874
-67.362602 28.340702 0.024077348
-67.053993 28.353642 0.023266545
-66.735764 28.34251 0.01542869
-66.45211 28.336382 0.0156139
-66.16011 28.33897 0.015428709
-65.821304 28.338461 0.13536796
-44.11219 28.460394 0.095428683
-43.993046 28.339106 0.10695641
-43.648224 28.339264 0.024815453
-43.3773 28.340788 0.02404053
-41.821129 28.342775 0.016266407
-41.548843 28.335342 0.018318426
-41.263313 28.327736 0.019124337
-40.952808 28.340277 0.015964434
-40.657398 28.342541 0.015883261
-40.35458 28.339857 0.016918072
-40.044022 28.330585 0.016049813
-39.743401 28.327011 0.021470318
-39.474213 28.343679 0.021699866
-39.181503 28.337786 0.13462456
3.1338639 28.329775 0.13493127
3.4502225 28.336651 0.016032171
3.6850796 28.343718 0.015580187
5.0794749 28.342062 0.015428685
5.2650676 28.331032 0.022631016
5.5385623 28.331915 0.023010716
5.9130378 28.338505 0.096877053
6.0197845 28.334442 0.16438818
-170.42549 28.670389 0.14542869
-165.64719 28.655396 0.20542869
-165.35219 28.63373 0.16542868
-165.18861 28.63073 0.10431237
-164.87737 28.574793 0.015428678
-164.53874 28.588959 0.015428678
-164.2354 28.62364 0.015428673
-163.94905 28.619139 0.015428671
-163.65086 28.633112 0.015802501
-163.34573 28.63031 0.016824029
-163.04869 28.624939 0.015580187
-162.74379 28.636576 0.015529718
-162.44031 28.629412 0.018975856
-162.17981 28.631922 0.0166375
-161.85385 28.63224 0.015547039
-161.55269 28.622616 0.0154287
-161.24834 28.636719 0.015428711
-160.94977 28.639582 0.016211331
-160.63843 28.637955 0.022311766
-160.35721 28.634567 0.024317529
-160.0403 28.617006 0.016163973
-159.73938 28.631018 0.015428699
-159.45465 28.638184 0.015428714
-159.15163 28.631418 0.017000776
-158.83385 28.632116 0.023080803
-158.55666 28.6415 0.024983697
-158.26755 28.644026 0.01901078
-157.99121 28.654322 0.015428673
-157.6163 28.570513 0.1474909
-157.3643 28.640123 0.14306025
-157.14775 28.737335 0.16011222
-119.84442 28.646515 0.15329857
-119.56705 28.641748 0.029048296
-119.24844 28.649126 0.015428701
-118.94453 28.642796 0.016381104
-118.64282 28.644165 0.022591956
-118.35487 28.641289 0.024812547
-118.18336 28.640398 0.021475188
-116.79 28.648838 0.024696952
-116.55676 28.644047 0.024317537
-116.27769 28.64225 0.13737476
-70.384972 28.640663 0.1137816
-70.12207 28.649319 0.016834926
-68.755081 28.605026 0.017167807
-68.54306 28.640961 0.024611341
-68.253555 28.640871 0.025773497
-67.964592 28.654776 0.028945485
-67.658974 28.647745 0.028836867
-67.355286 28.649803 0.025174422
-67.079552 28.62821 0.017476896
-66.70163 28.644775 0.015565668
-66.449669 28.656393 0.01962796
-66.157066 28.654148 0.018615944
-65.856987 28.642105 0.14482372
-44.000053 28.639542 0.11505351
-43.644466 28.641594 0.023406779
-43.392464 28.633678 0.019947516
-41.830635 28.639418 0.017312128
-41.553436 28.642447 0.019857733
-41.243107 28.647949 0.019065045
-40.955112 28.653095 0.023702607
-40.657616 28.652136 0.023747712
-40.36797 28.650524 0.025925089
-40.059067 28.652113 0.021142989
-39.74189 28.652363 0.019065067
-39.454018 28.652912 0.023279104
-39.19479 28.659115 0.14108059
3.1352718 28.635866 0.13522686
3.4474735 28.646946 0.016689226
3.7008839 28.641933 0.015941512
5.0689516 28.63982 0.016000114
5.265111 28.631083 0.021287248
5.5363836 28.632463 0.019531241
5.924686 28.643435 0.10708286
6.015327 28.634836 0.16226411
-170.44661 28.977064 0.15209535
-165.37886 28.960392 0.18076202
-165.20299 28.897566 0.12902518
-164.85219 28.850391 0.015428684
-164.52719 28.872894 0.015428684
-164.27887 28.858175 0.015428684
-163.8797 28.850393 0.015428684
-163.64255 28.900391 0.015428687
-163.3701 28.893726 0.015428682
-163.04997 28.851505 0.015428682
-162.74171 28.88294 0.015428674
-162.44455 28.916107 0.01542869
-162.20003 28.872274 0.015428674
-161.87872 28.883154 0.015428675
-161.51555 28.832615 0.015428682
-161.21989 28.880709 0.015428675
-160.94662 28.930813 0.015787976
-160.64162 28.931086 0.020945925
-160.37581 28.92186 0.021838939
-160.01219 28.817062 0.015428684
-159.69531 28.849768 0.015428687
-159.43997 28.874191 0.015428671
-159.1382 28.907139 0.015428686
-158.83263 28.94311 0.020834066
-158.55988 28.941145 0.023262458
-158.26082 28.939589 0.016701449
-157.99188 28.934757 0.015428669
-157.71886 28.913729 0.015428684
-157.21219 29.033728 0.042095352
-157.15742 28.928383 0.15345551
-119.83997 28.939009 0.15322685
-119.5533 28.933727 0.022250427
-119.24396 28.94031 0.015428707
-118.94598 28.937811 0.016521161
-118.64378 28.937788 0.023978259
-118.35445 28.939531 0.025338171
-118.18515 28.908503 0.023536788
-116.80553 28.944702 0.024623267
-116.55622 28.939672 0.027244629
-116.28482 28.942589 0.14065728
-70.64473 29.052906 0.14018396
-70.397018 28.94091 0.11481962
-70.102745 28.947803 0.016883243
-68.748749 28.935251 0.016571539
-68.544136 28.935898 0.024825638
-68.252853 28.941412 0.025632752
-67.951271 28.940502 0.025920475
-67.652977 28.942171 0.025196107
-67.371307 28.933859 0.022857212
-67.066765 28.951353 0.015428701
-66.743118 28.945599 0.016372111
-66.445427 28.9422 0.021028657
-66.152489 28.943577 0.022562398
-65.862366 28.952562 0.14719565
-44.120201 28.946896 0.18492866
-44.003235 28.953724 0.13192557
-43.648045 28.936779 0.023598401
-43.399048 28.947601 0.019944841
-42.632191 28.970394 0.015428683
-42.419403 28.979778 0.015428671
-42.152344 28.984642 0.015428675
-41.83802 28.946993 0.018762022
-41.548359 28.951065 0.023099873
-41.246628 28.947872 0.024559086
-40.9538 28.942411 0.025542565
-40.656441 28.939262 0.026212983
-40.359138 28.938759 0.029581472
-40.051167 28.944353 0.028992653
-39.74324 28.94376 0.02604091
-39.461071 28.970209 0.11518595
-39.210705 28.85813 0.14618446
3.1419206 28.941633 0.1335274
3.4478657 28.942074 0.022347236
3.7052774 28.939186 0.01615159
5.0625911 28.963001 0.015428679
5.2615209 28.94219 0.018570455
5.5460672 28.956125 0.023069082
5.9142346 28.952868 0.10137957
6.0156732 28.952368 0.16635719
-170.44977 29.265192 0.14902867
-165.37338 29.28157 0.16366398
-165.21613 29.209204 0.12228184
-164.83218 29.260395 0.015428683
-164.54019 29.204395 0.015428683
-164.26552 29.107061 0.015428682
-163.95219 29.140396 0.015428683
-163.66077 29.160395 0.015428684
-163.43219 29.100395 0.015428683
-162.80553 29.247061 0.015428682
-162.4305 29.169563 0.015428685
-161.71219 29.380394 0.015428683
-161.54877 29.242466 0.015428686
-161.21999 29.242987 0.015428673
-160.94678 29.236382 0.015686752
-160.63887 29.243979 0.020243516
-160.40265 29.232368 0.019749694
-159.32719 29.155396 0.015428683
-159.07411 29.209921 0.015428684
-158.83264 29.234154 0.022388106
-158.5596 29.232641 0.024273518
-158.25937 29.238832 0.017629676
-157.97272 29.245285 0.015428686
-157.67151 29.271662 0.015428676
-157.24034 29.285931 0.042662729
-157.17203 29.234489 0.16958527
-120.13219 29.233727 0.16209537
-119.85685 29.234684 0.1504512
-119.5256 29.279848 0.015428673
-119.23786 29.249584 0.015428692
-118.94493 29.241945 0.016845394
-118.63954 29.242136 0.023460543
-118.35896 29.239368 0.025162315
-118.19075 29.176107 0.026857253
-116.82616 29.244671 0.025347345
-116.5572 29.242571 0.024532773
-116.28502 29.240461 0.14263488
-70.675865 29.228998 0.1261348
-70.35257 29.224178 0.020699989
-70.103729 29.251101 0.016735876
-69.615891 29.268543 0.025058312
-69.467331 29.287277 0.024326293
-69.158821 29.288406 0.022095351
-68.849922 29.27412 0.018272759
-68.539497 29.241285 0.024172368
-68.25264 29.240284 0.025361555
-67.95118 29.23974 0.025383215
-67.655663 29.236368 0.025127038
-67.365349 29.239283 0.018351769
-67.049294 29.245604 0.016850946
-66.750931 29.238398 0.016500149
-66.442703 29.24262 0.021256469
-66.155769 29.242153 0.023093304
-65.82663 29.232067 0.13684911
-44.123981 29.33028 0.15509252
-43.994591 29.22422 0.13877015
-43.639809 29.229166 0.019942304
-43.362759 29.232798 0.01830936
-43.091766 29.303551 0.015428671
-42.872192 29.380394 0.015428682
-42.411919 29.183205 0.015428674
-42.131474 29.219496 0.015428688
-41.838844 29.240681 0.017889021
-41.548649 29.235195 0.023608057
-41.251251 29.239466 0.02529292
-40.952915 29.239637 0.025360947
-40.655617 29.240877 0.025646584
-40.353779 29.25074 0.027203307
-40.050129 29.250952 0.027080826
-39.746212 29.242912 0.025925122
-39.46912 29.239723 0.13496447
3.1324282 29.237534 0.13886546
3.4472411 29.238834 0.017136034
3.7348607 29.24365 0.015621948
5.0480785 29.245529 0.015428673
5.2573318 29.238619 0.017571563
5.5464144 29.232584 0.022579797
5.910295 29.226458 0.098581165
6.0200715 29.236395 0.16419379
-170.47429 29.582457 0.14887699
-165.35371 29.543554 0.17384973
-165.22665 29.547115 0.10747835
-164.81219 29.610394 0.015428683
-164.56219 29.590395 0.015428683
-164.29219 29.487061 0.015428682
-163.89886 29.440393 0.015428682
-163.7522 29.420395 0.015428683
-162.99219 29.420395 0.015428683
-161.77618 29.526392 0.015428683
-161.51848 29.566113 0.015428685
-161.22853 29.564774 0.015428675
-160.94463 29.553061 0.016997343
-160.64641 29.553617 0.021889132
-160.42198 29.52832 0.019992458
-159.02647 29.63468 0.021142969
-158.8455 29.551167 0.024380475
-158.55804 29.545675 0.023579108
-158.2597 29.547359 0.017187975
-157.9675 29.548542 0.015428689
-157.67029 29.564625 0.015428673
-157.24405 29.537531 0.085071556
-157.17946 29.542965 0.17878312
-119.86848 29.541317 0.14424387
-119.54002 29.541191 0.015428687
-119.24467 29.540615 0.015428709
-118.93897 29.538078 0.017918663
-118.646 29.539728 0.024587072
-118.36695 29.53758 0.024905093
-116.84031 29.539391 0.024873098
-116.55539 29.533081 0.024021994
-116.29675 29.531836 0.14286269
-70.676811 29.542269 0.12644021
-70.345413 29.541321 0.019263268
-70.081902 29.551949 0.017940348
-69.649261 29.567488 0.024595344
-69.448441 29.533478 0.028379962
-69.148544 29.542141 0.026799228
-68.856499 29.541708 0.024015035
-68.551643 29.539448 0.025107563
-68.258179 29.538399 0.024532767
-67.94812 29.535427 0.02153456
-67.657326 29.532307 0.020126177
-67.34874 29.536953 0.019118721
-67.059654 29.543718 0.01765093
-66.751534 29.541679 0.015428716
-66.45063 29.528833 0.017697619
-66.158791 29.530275 0.016709499
-65.840111 29.530687 0.12864925
-44.121559 29.500898 0.097428717
-44.016113 29.555155 0.14639212
-43.645634 29.563129 0.021006366
-43.364632 29.54752 0.017181288
-43.049908 29.530283 0.016526259
-42.7626 29.546898 0.01635584
-42.457386 29.586468 0.015964383
-42.136913 29.566736 0.015566612
-41.848289 29.539402 0.016525771
-41.545658 29.531908 0.019183192
-41.250683 29.541147 0.025270656
-40.974037 29.545673 0.021527942
-40.649353 29.552296 0.01634299
-40.350075 29.550898 0.017705951
-40.076096 29.505266 0.019039813
-39.718174 29.523088 0.024248509
-39.454948 29.519592 0.12169722
-39.22419 29.611296 0.15234143
3.1311758 29.531221 0.13897365
3.4444883 29.544641 0.020816119
3.7449343 29.534769 0.015428707
3.911808 29.570393 0.015428683
5.0367823 29.545523 0.015428673
5.2545681 29.531538 0.016008424
5.5486341 29.536409 0.020951055
5.9100199 29.543736 0.10220932
6.0243111 29.535572 0.16219981
-170.48155 29.803146 0.1516356
-170.36819 29.940393 0.15542868
-165.33249 29.844397 0.18804407
-165.24307 29.817802 0.12102109
-164.87219 29.940393 0.015428683
-164.57219 29.890394 0.015428683
-164.3922 29.820395 0.015428683
-163.55219 29.980394 0.015428683
-163.45219 29.980394 0.015428683
-162.71553 29.963728 0.015428684
-162.43159 29.927454 0.015428685
-162.17751 29.928631 0.015428685
-161.84845 29.912262 0.015428675
-161.54007 29.886564 0.015428673
-161.23228 29.839533 0.015428693
-160.94391 29.835972 0.01665679
-160.64453 29.83321 0.021592163
-160.43591 29.83742 0.019757055
