# .PCD v0.7 - Point Cloud Data file format
VERSION 0.7
FIELDS x y z
SIZE 4 4 4
TYPE F F F
COUNT 1 1 1
WIDTH 1434
HEIGHT 1
VIEWPOINT 0 0 0 1 0 0 0
POINTS 1434
DATA ascii
-39.385002 38.852161 -3.4702289
-39.145546 38.853245 -3.4810395
-38.851192 38.866917 -3.4776361
-38.51973 38.848515 -3.4747453
-38.24094 38.854328 -3.4770088
-37.952671 38.858032 -3.4761548
-37.723969 38.860989 -3.431895
-69.328972 39.15099 -3.3935616
-69.133904 39.156723 -3.4362271
-68.791878 39.152653 -3.4460604
-68.575104 39.147121 -3.4606283
-68.235023 39.156143 -3.4575007
-67.920975 39.182323 -3.4488952
-67.632965 39.170326 -3.4462285
-67.407303 39.164322 -3.4402282
-39.397434 39.138107 -3.4761744
-39.1492 39.146732 -3.4881587
-38.84156 39.146919 -3.4828203
-38.507629 39.142323 -3.4788954
-38.260685 39.155621 -3.4805524
-37.955376 39.145859 -3.4786897
-37.748962 39.16766 -3.4368951
-69.322304 39.454319 -3.3829553
-69.12957 39.449326 -3.4388635
-68.788467 39.454842 -3.4481761
-68.579231 39.456631 -3.4579206
-68.245163 39.460033 -3.4459424
-67.91703 39.449062 -3.446018
-67.649673 39.463795 -3.4449656
-67.387299 39.474323 -3.4402282
-39.415123 39.445602 -3.4876637
-39.158852 39.439846 -3.4922965
-38.8591 39.433525 -3.4926276
-38.519901 39.439926 -3.4910276
-38.233173 39.464325 -3.491533
-37.962299 39.454327 -3.491061
-37.718666 39.445236 -3.4411371
-69.313728 39.782898 -3.3902283
-69.142708 39.743259 -3.4332061
-68.784798 39.743824 -3.4447277
-68.570763 39.751247 -3.4571517
-68.264305 39.755325 -3.4532287
-67.955635 39.765991 -3.4552286
-67.66452 39.775433 -3.4468954
-67.359444 39.745754 -3.450228
-39.424309 39.747833 -3.4947276
-39.144371 39.750885 -3.5026419
-38.852776 39.747662 -3.5007041
-38.522301 39.726051 -3.4950554
-38.24229 39.752731 -3.496228
-37.970482 39.767956 -3.4965913
-37.714802 39.776825 -3.4902284
-69.312302 40.070992 -3.4168947
-69.123703 40.047352 -3.4451113
-68.762299 40.052872 -3.4487638
-68.590485 40.061596 -3.4620469
-68.257851 40.060989 -3.4546728
-67.925636 40.064327 -3.4552281
-67.636742 40.063213 -3.4491174
-67.328011 40.065754 -3.450228
-39.438808 40.044815 -3.5002282
-39.1455 40.059921 -3.5030282
-38.853306 40.058323 -3.5032277
-38.525749 40.034317 -3.4929862
-38.241325 40.038216 -3.4965689
-37.957764 40.050686 -3.4956825
-37.692303 40.041824 -3.4827282
-69.329803 40.391823 -3.4377282
-69.128281 40.356331 -3.447228
-68.763954 40.349876 -3.4507833
-68.598007 40.354332 -3.4638004
-68.247864 40.363216 -3.4568954
-67.903976 40.367657 -3.4568949
-67.622299 40.342892 -3.4516571
-67.365639 40.394321 -3.450228
-67.172302 40.424324 -3.4502282
-39.456474 40.321262 -3.4299502
-39.155491 40.31731 -3.4234197
-38.864651 40.313736 -3.4214053
-38.522305 40.303127 -3.4214289
-38.25663 40.288918 -3.4296875
-37.965092 40.281292 -3.4195309
-37.701244 40.262745 -3.3986487
-69.34819 40.693146 -3.4008167
-69.136681 40.65995 -3.4508529
-68.758408 40.644325 -3.4552276
-68.585052 40.658451 -3.4633324
-68.20047 40.650688 -3.4611373
-67.919449 40.66861 -3.4587994
-67.672302 40.638607 -3.4587996
-67.416588 40.642895 -3.4530852
-67.122307 40.680988 -3.4502285
-69.330299 40.854324 -3.3502281
-69.149422 40.866318 -3.3848948
-68.777946 40.880402 -3.3906631
-68.57547 40.879681 -3.3980329
-68.2323 40.863216 -3.4002283
-67.952293 40.866825 -3.3852282
-67.649307 40.85833 -3.3862281
-67.382301 40.855991 -3.3902283
-67.082298 40.860992 -3.3902283
-51.237305 7.7943234 -3.1102281
-50.898304 7.8343239 -3.1142282
-50.472301 7.8143239 -3.1435616
-49.7523 7.8343239 -3.2302282
-51.492302 10.094324 -3.0602281
-51.178299 10.102324 -3.1062284
-50.795635 10.084324 -3.1535614
-50.402302 10.074324 -3.1852281
-50.202301 10.090991 -3.1368949
-39.437305 37.434326 -3.0502281
-39.440968 37.682323 -3.1008952
-37.722301 37.644325 -3.0302281
-68.847305 37.994328 -3.0577283
-68.642303 37.894325 -3.0102282
-67.572296 37.984322 -3.0702281
-39.442303 37.903736 -3.1314046
-37.702301 37.994324 -3.130228
-69.342293 38.272102 -3.1013391
-69.152298 38.229321 -3.190228
-68.726738 38.289875 -3.2146726
-68.535637 38.254322 -3.2168949
-68.282303 38.364326 -3.2802281
-67.872299 38.304321 -3.2402282
-67.608971 38.267658 -3.0968945
-67.442299 38.210323 -3.0942283
-39.442303 38.171822 -3.1452281
-69.354294 38.599655 -3.1595616
-69.042297 38.434322 -3.2902281
-68.722298 38.414322 -3.2902281
-39.455631 38.51099 -3.1902282
-67.542297 38.969322 -3.2402282
-69.343956 39.140991 -3.1785614
-69.342293 40.009327 -3.1627281
-39.45697 40.350967 -3.1533394
-39.155151 40.338619 -3.1537993
-38.863762 40.334339 -3.1594961
-69.37944 40.757179 -3.1730855
-68.570892 40.896847 -3.1648309
-67.382294 40.868771 -3.1546726
-67.082298 40.865753 -3.1445141
-51.252304 7.7943234 -2.8635614
-52.4823 7.8343239 -2.7102282
-51.926308 7.8183241 -2.8262281
-50.912304 7.8343239 -2.8752282
-50.575634 7.8276572 -2.8768947
-52.155636 10.114324 -2.7568948
-51.854301 10.094324 -2.8062282
-51.505634 10.094323 -2.8535614
-51.191525 10.112784 -2.847151
-39.422302 36.854324 -2.7102282
-39.423836 37.0774 -2.8040745
-37.762302 37.054325 -2.7102282
-69.322304 37.494324 -2.7702281
-69.202301 37.414322 -2.7302282
-68.737305 37.414322 -2.7352281
-68.1623 37.394325 -2.7502282
-67.4823 37.494324 -2.7902281
-39.442307 37.357964 -2.8429551
-37.742302 37.339325 -2.8002281
-69.342293 37.709881 -2.7946725
-69.142303 37.714325 -2.8902283
-68.782295 37.60099 -2.8368948
-68.682304 37.774323 -2.9502282
-67.462303 37.554325 -2.7502282
-39.44231 37.700405 -2.8580544
-37.722301 37.631821 -2.8377283
-69.342293 37.958767 -2.859117
-69.048965 37.827656 -2.9568949
-67.562302 37.839325 -2.7752283
-39.435158 37.970036 -2.8573709
-37.8223 37.960991 -2.8302281
-37.702301 37.999325 -2.8577282
-67.562309 38.336826 -2.8752282
-67.462303 38.186821 -2.8352282
-39.442303 38.240993 -2.9568949
-51.262302 7.7943234 -2.6602283
-53.442303 7.9343238 -2.4102283
-53.248966 7.9543242 -2.4568949
-52.932304 7.8543239 -2.4702282
-52.5023 7.8343239 -2.4902282
-52.4823 7.8343239 -2.5368948
-51.942299 7.8343239 -2.5473709
-53.402302 9.9543238 -2.4102283
-53.212299 10.047656 -2.4368951
-52.936584 10.097181 -2.4616568
-52.652298 10.124324 -2.5102282
-52.422306 10.114324 -2.5616567
-52.148453 10.114325 -2.5594592
-51.852299 10.094323 -2.5468948
-51.498966 10.094323 -2.5635614
-39.442303 36.480995 -2.4502285
-68.795631 36.847656 -2.4168949
-68.682304 36.854324 -2.4302282
-67.622299 36.894325 -2.4702282
-39.438854 36.777084 -2.5240216
-39.282299 36.634323 -2.6102281
-37.762302 36.802326 -2.4882281
-69.322304 37.037659 -2.4535615
-69.1063 36.998322 -2.4942281
-68.772301 37.070038 -2.5416565
-68.588966 37.047657 -2.5502281
-67.646301 37.134327 -2.5062282
-67.4823 37.004326 -2.4552283
-39.422302 37.062099 -2.5446727
-37.8223 36.994324 -2.4102283
-37.762302 37.074326 -2.5435615
-69.337585 37.357849 -2.5443456
-69.042297 37.334324 -2.6902282
-68.774307 37.302322 -2.6742282
-68.462303 37.234325 -2.6502283
-68.332306 37.284325 -2.6702282
-67.968971 37.274323 -2.6768949
-67.582298 37.445747 -2.5102284
-39.442307 37.353554 -2.5486896
-37.742306 37.347656 -2.5680058
-67.471191 37.536549 -2.5413392
-67.562309 37.831825 -2.5527282
-55.577301 7.9559903 -2.1518948
-55.289501 7.9567237 -2.2254286
-55.030293 7.9696574 -2.2308953
-54.75882 7.9664969 -2.2319674
-54.450752 7.9574003 -2.2325361
-54.149502 7.9655237 -2.2310286
-53.853413 7.9509897 -2.2380061
-53.477303 7.8943238 -2.3652282
-53.362305 7.8727856 -2.2409976
-52.939445 7.8543239 -2.2330854
-55.32658 8.2564669 -2.2430856
-55.046646 8.2473679 -2.2502286
-54.762299 8.2534542 -2.2519677
-54.438496 8.2447987 -2.2549901
-54.130642 8.2501574 -2.2560618
-53.854713 8.2557039 -2.2447109
-55.562302 8.6943235 -2.1702282
-55.325294 8.5463238 -2.2442284
-55.039684 8.5508451 -2.2502286
-54.762306 8.5573225 -2.2502284
-54.460083 8.5387688 -2.254673
-54.110565 8.5536337 -2.2481594
-53.859146 8.5643244 -2.2344387
-55.648968 8.7943239 -2.1302283
-55.31049 8.8688698 -2.2393193
-55.05373 8.8678942 -2.2466571
-54.744045 8.8647585 -2.2502286
-54.444698 8.8607235 -2.2502286
-54.119907 8.8711243 -2.2470286
-53.853817 8.8597794 -2.2338645
-55.612305 9.1076574 -2.1385615
-55.312065 9.1249743 -2.2315311
-55.050175 9.1378918 -2.2382627
-54.755852 9.143754 -2.2394726
-54.446762 9.1593733 -2.2411363
-54.147892 9.167346 -2.2413902
-53.841476 9.1654577 -2.2324958
-55.572304 9.464323 -2.1602283
-55.310444 9.4483976 -2.2354138
-55.050072 9.4554358 -2.2407837
-54.74424 9.4381952 -2.2392604
-54.442307 9.4432135 -2.2420802
-54.150585 9.4536343 -2.2391939
-53.848301 9.438324 -2.2275617
-55.932297 9.7643242 -2.1368949
-55.587299 9.7293234 -2.1602283
-55.317596 9.7619696 -2.2384632
-55.049145 9.7669554 -2.2475967
-54.746433 9.746047 -2.2495389
-54.448971 9.7595081 -2.2494879
-54.146469 9.7584896 -2.2477286
-53.838493 9.7362289 -2.2321332
-55.56802 10.037181 -2.1416569
-55.30328 10.026128 -2.219408
-55.031048 10.060803 -2.2271302
-54.747055 10.106194 -2.2104375
-54.493015 10.088967 -2.2066569
-54.167007 10.0755 -2.2190518
-53.876743 10.095435 -2.2157838
-53.562305 10.116323 -2.2412281
-53.214802 10.120573 -2.2577281
-52.903736 10.122895 -2.237371
-52.6423 10.13099 -2.2502282
-69.002304 36.274323 -2.1102281
-68.802307 36.287659 -2.1102281
-69.328011 36.482899 -2.1473713
-69.086304 36.470325 -2.2062283
-68.796974 36.444988 -2.2008948
-68.515633 36.414322 -2.2035615
-68.255638 36.587658 -2.2968948
-67.952301 36.519325 -2.2602282
-67.563972 36.500996 -2.1668947
-69.334061 36.747265 -2.2208164
-69.082298 36.734325 -2.3502281
-68.814804 36.711826 -2.347728
-67.580299 36.784325 -2.1942279
-69.331764 37.037476 -2.2533858
-67.569664 37.048008 -2.2470703
-67.4823 36.994324 -2.2802281
-56.192299 7.9630737 -1.8577281
-55.922298 7.9055734 -1.9089782
-55.616779 7.8943219 -1.9433316
-55.2743 7.8763237 -1.9462283
-55.024044 7.891715 -1.9406629
-54.755634 7.8876581 -1.9502282
-54.518303 7.8763237 -1.9402282
-54.147297 7.8743229 -1.9514781
-53.724804 7.8643241 -1.942728
-56.102303 8.1143236 -1.9302281
-55.982304 8.254324 -1.9802281
-56.122299 8.6943235 -1.9102281
-55.928967 8.5143232 -2.0068948
-56.234295 8.9023237 -1.8462282
-55.888966 8.9343233 -2.0168948
-56.187302 9.0993233 -1.8652282
-55.936153 9.1435547 -1.9809972
-55.745377 9.1189384 -2.0779207
-56.222301 9.4143238 -1.8502282
-56.072304 9.504324 -1.9202281
-55.782299 9.4543238 -2.0702281
-56.223839 9.8481693 -1.9502282
-55.964302 9.7603235 -2.0182281
-55.752304 9.7043238 -2.0802281
-56.522301 10.004324 -1.8802282
-56.274303 9.9863224 -1.8662281
-55.874687 10.11718 -1.9302279
-55.609425 10.131212 -1.9280055
-55.306671 10.144324 -1.9452283
-55.058086 10.154325 -1.944965
-54.760208 10.166874 -1.9523213
-54.495033 10.166788 -1.962692
-54.1423 10.154993 -1.9495612
-53.835632 10.144991 -1.9462281
-53.576214 10.135194 -1.9458801
-69.082298 35.894325 -1.8802282
-68.807304 35.870323 -1.8862282
-68.527298 35.814323 -1.8652282
-68.248962 35.947655 -1.9435616
-67.962296 35.944321 -1.9402282
-69.333595 36.182148 -1.9110975
-69.152298 36.119324 -2.005228
-68.798767 36.122559 -2.017287
-68.652298 36.184326 -2.0702281
-67.570412 36.161819 -1.915853
-69.342293 36.487045 -1.9475007
-67.563202 36.475697 -1.9443189
-54.192299 7.7943234 -1.5102282
-53.9823 7.7743235 -1.5102282
-56.815159 7.9564667 -1.5609424
-56.542301 7.9133496 -1.6102282
-56.227081 7.9082389 -1.6532717
-55.938969 7.9059906 -1.6352283
-55.624302 7.897655 -1.6528949
-55.256046 7.8818235 -1.6702281
-54.762302 7.8921018 -1.6568948
-56.7173 8.1593237 -1.6202282
-56.577854 8.298768 -1.696895
-56.57658 8.5543232 -1.6959425
-56.810295 8.9163237 -1.574228
-56.562302 8.9409895 -1.6902281
-56.815941 9.0979605 -1.5620462
-56.591194 9.1209908 -1.6702282
-56.332298 9.0643234 -1.7902281
-56.832302 9.4393234 -1.5602281
-56.5583 9.4943237 -1.6902281
-56.782299 9.674324 -1.5702281
-56.475636 9.7076569 -1.7168947
-56.3423 9.6343241 -1.7902281
-56.742302 10.124324 -1.5402281
-56.500195 10.137482 -1.5997018
-54.422302 7.7743235 -1.4702282
-54.282299 7.7543235 -1.4702282
-53.772301 7.7643232 -1.4902282
-53.622299 7.7543235 -1.4702282
-57.430283 7.964992 -1.2604506
-57.151054 7.9370513 -1.3238646
-56.837666 7.9167624 -1.3414476
-56.5452 7.9121456 -1.3578646
-56.232498 7.9083652 -1.3502282
-57.450089 8.2343245 -1.2724502
-57.108967 8.2396564 -1.4382279
-57.453072 8.5450916 -1.2686896
-57.074299 8.530323 -1.4542282
-57.438488 8.9257526 -1.272133
-57.143841 8.886631 -1.4148437
-56.962299 8.964323 -1.4902282
-57.455425 9.104948 -1.2583534
-57.116302 9.148324 -1.4202282
-56.966301 9.1203232 -1.4862283
-57.378971 9.3509903 -1.2935616
-57.162296 9.4143229 -1.3993192
-56.9823 9.4743233 -1.4702282
-57.462299 9.7276573 -1.2302282
-57.175632 9.7743235 -1.3635615
-56.952301 9.7443237 -1.4802282
-57.357857 10.138768 -1.2435615
-57.117088 10.136064 -1.2989239
-56.842293 10.129708 -1.3517666
-57.302299 10.274323 -1.2502282
-64.202301 6.3143239 -0.93022817
-58.03413 7.9547319 -0.96084017
-57.753906 7.939023 -1.0293188
-57.420956 7.9282923 -1.044711
-57.151447 7.9262419 -1.0522829
-56.834145 7.9212642 -1.0455343
-58.207302 8.2043238 -0.91022813
-58.085857 8.2832136 -0.9680059
-57.762302 8.2374811 -1.1233861
-58.202301 8.4943237 -0.91022807
-58.054443 8.5293226 -0.97737092
-57.74538 8.535862 -1.1286898
-58.202301 8.8843231 -0.91022813
-58.0341 8.8784266 -0.98458737
-57.734303 8.872324 -1.1282281
-57.582302 8.9543238 -1.1902281
-58.022297 9.1009893 -0.98356158
-57.733727 9.1328945 -1.1252283
-57.574299 9.1183233 -1.1902281
-57.742298 9.4583225 -1.1062281
-58.032303 9.7343235 -0.96022815
-57.7323 9.7793236 -1.1102281
-58.386303 10.098324 -0.91022813
-57.975971 10.148958 -0.93656951
-57.67976 10.132869 -0.9938646
-57.379948 10.150209 -1.0149339
-58.315632 10.254323 -0.91022807
-58.029076 10.252183 -0.94558555
-57.772289 10.255196 -0.96892351
-57.445713 10.254324 -0.99217933
-64.202301 21.354324 -0.9702282
-64.102303 21.400991 -1.0102282
-24.962301 2.9343238 -0.67022818
-24.9223 3.1443238 -0.67022818
-60.202301 3.3143237 -0.61022818
-84.652298 4.1157517 -0.70165664
-64.642303 4.7943234 -0.81022817
-64.582298 4.8143239 -0.68022817
-64.202301 6.2543235 -0.61022818
-64.072304 6.2509904 -0.76022816
-63.737297 6.1743236 -0.6902281
-64.255646 6.3443236 -0.71022815
-58.262302 7.7743235 -0.61022818
-57.902302 7.7743235 -0.61022818
-58.802299 7.9943237 -0.61022818
-58.643959 7.9665709 -0.66124856
-58.338295 7.9355869 -0.73275441
-58.027687 7.9157143 -0.74349535
-57.748371 7.9262757 -0.74321532
-57.437931 7.9227777 -0.73613435
-56.858459 7.9087524 -0.75079954
-58.802299 8.2393236 -0.61022818
-58.665901 8.2758627 -0.67227948
-58.362305 8.2481709 -0.82971531
-58.815639 8.5593233 -0.61022812
-58.664635 8.5685272 -0.67921352
-58.366234 8.5386715 -0.82674998
-58.805943 8.8197794 -0.61022812
-58.659184 8.8418236 -0.67741561
-58.389534 8.8658133 -0.81107914
-58.835632 9.2165461 -0.61022812
-58.632935 9.0905733 -0.68522829
-58.373417 9.0928421 -0.81170964
-58.839691 9.4560623 -0.6102283
-58.752102 9.4676571 -0.62944365
-58.262299 9.4276571 -0.85689479
-58.874687 9.7714663 -0.61594254
-58.722607 9.7665081 -0.67731935
-58.327301 9.754324 -0.82022816
-58.835632 10.052101 -0.61689478
-58.698029 10.091583 -0.6851995
-58.307762 10.133024 -0.75672162
-57.983299 10.151924 -0.74631542
-58.854298 10.246325 -0.62222815
-58.683987 10.244602 -0.66817212
-58.333565 10.243522 -0.72563052
-58.042622 10.249916 -0.75130332
-57.786419 10.253633 -0.74764204
-41.442299 15.884323 -0.68022817
-40.902302 15.894323 -0.73022819
-41.438969 16.034325 -0.67689484
-41.207298 16.019323 -0.69737101
-40.991535 16.022017 -0.7040742
-41.42897 16.394323 -0.66356152
-41.237297 16.286467 -0.68737096
-40.987637 16.322323 -0.69556153
-66.65564 16.640989 -0.63356143
-66.479942 16.66256 -0.63375753
-66.162308 16.614325 -0.67022818
-65.788971 16.624323 -0.67689484
-41.402302 16.614325 -0.67022818
-41.212299 16.645864 -0.68330514
-41.005634 16.709324 -0.69022804
-40.782299 16.574324 -0.73022819
-66.642303 17.014322 -0.63022816
-66.4543 16.978323 -0.63422811
-66.142303 16.854324 -0.66022813
-65.804802 16.984324 -0.67022812
-41.422302 16.894323 -0.65022814
-41.21563 17.031822 -0.67856151
-40.972301 16.980989 -0.69022816
-41.170303 17.218325 -0.68222821
-40.962299 17.156324 -0.69222808
-66.642303 17.434324 -0.63022816
-41.122299 17.524323 -0.68022817
-40.9823 17.522324 -0.69022816
-66.422302 17.914324 -0.79022813
-64.202301 21.334324 -0.81022811
-64.0923 21.374325 -0.81022811
-52.422302 -16.385675 -0.33022815
-52.5023 -16.145676 -0.33022815
-52.422302 -16.065676 -0.33022815
-52.562302 -15.865676 -0.33022815
-53.0023 -15.585676 -0.33022815
-52.608967 -15.405675 -0.31022817
-52.422302 -15.385676 -0.31022817
-53.082302 -15.285676 -0.33022815
-52.612301 -15.095676 -0.31022817
-53.1423 -14.985677 -0.31022817
-54.011189 -9.0323439 -0.33689481
-53.827702 -9.0202713 -0.36644447
-53.580555 -9.0291529 -0.33631518
-53.201126 -9.039794 -0.31258112
-53.059448 -9.04282 -0.31594244
-54.0023 -8.9856768 -0.31022817
-53.819447 -8.9856768 -0.34165671
-53.642303 -8.9856768 -0.35022816
-115.3423 -8.5856762 -0.47022817
-115.6273 -7.5056763 -0.39022815
-115.40897 -7.5056763 -0.38356149
-114.35563 -7.5190101 -0.31022817
-115.65394 -7.4466867 -0.39039603
-115.35476 -7.4453497 -0.37285101
-115.0445 -7.4281783 -0.3867906
-114.77879 -7.4359112 -0.39813495
-114.44497 -7.4630108 -0.3115615
-114.20896 -7.4190097 -0.31022817
-113.85429 -7.4296761 -0.35422814
-56.2323 0.67432368 -0.38022816
-56.188965 1.167657 -0.39022815
-52.902302 1.3743236 -0.33022815
-56.1423 1.6543237 -0.35689482
-52.902302 1.6543237 -0.33022815
-56.032303 2.0143237 -0.35022816
-52.902302 1.8943237 -0.31022817
-56.135632 2.1543236 -0.39022815
-56.015636 2.3009903 -0.33022815
-52.862301 2.3943236 -0.35022816
-56.1423 2.6609902 -0.37022817
-56.022301 2.4343235 -0.33022815
-52.8423 2.6143236 -0.33022815
-10.327301 2.6243236 -0.43522817
-56.0373 2.8393238 -0.31522816
-52.862301 2.9043236 -0.32022816
-52.647514 2.9447582 -0.39196736
-27.102301 2.8743236 -0.49022815
-24.98605 2.9255733 -0.47272813
-24.872301 2.9943237 -0.41022816
-23.1623 2.8943236 -0.31022817
-22.937859 2.8832121 -0.37022817
-10.572301 2.8743236 -0.40022814
-60.202301 3.2943237 -0.55022818
-56.152298 3.1343236 -0.37022817
-52.8423 3.1743236 -0.31022817
-52.645649 3.1276569 -0.38903767
-29.188967 3.1743238 -0.33689484
-28.648966 3.1543236 -0.33022818
-28.355635 3.2209904 -0.35689482
-27.9223 3.0943236 -0.31022817
-27.730301 3.2223237 -0.37022814
-27.4223 3.0543237 -0.41022816
-27.042301 3.0343237 -0.34022817
-26.884966 3.1489902 -0.4035615
-24.929804 3.109324 -0.47022817
-24.852303 3.0243237 -0.48022819
-23.102301 3.1743236 -0.31022817
-22.814301 3.254324 -0.40222818
-22.778301 3.2703235 -0.40622815
-60.188015 3.4771807 -0.44451386
-57.6423 3.4443235 -0.36022815
-57.192299 3.4643238 -0.38022816
-56.802299 3.4543238 -0.31022817
-56.1423 3.5743237 -0.35022816
-56.022301 3.3543236 -0.31022817
-52.645535 3.4517429 -0.36184111
-52.3423 3.3943236 -0.33022815
-52.0023 3.3743236 -0.31022817
-51.6423 3.3443236 -0.36022815
-51.328968 3.3209903 -0.36356148
-36.542301 3.3943236 -0.31022817
-22.7423 3.3243237 -0.33022815
-64.28231 3.767657 -0.46356151
-63.952301 3.6443236 -0.40022814
-62.8223 3.6743236 -0.37022817
-62.122299 3.6343236 -0.51022816
-61.9823 3.6543236 -0.33022815
-61.308964 3.6476567 -0.42356148
-60.437302 3.6893237 -0.45522815
-60.172302 3.6143236 -0.44022816
-58.242306 3.6343236 -0.41022816
-85.3423 4.1943235 -0.41022816
-85.082298 4.1943235 -0.39022815
-84.636147 4.1189389 -0.46868971
-84.558304 4.0943236 -0.41822815
-84.152298 4.1293235 -0.35022816
-83.872299 4.1643238 -0.37022817
-83.522301 4.1909909 -0.3502281
-83.280762 4.1620159 -0.36253592
-82.942299 4.1343236 -0.35022816
-82.372299 4.0943236 -0.32022816
-64.247299 4.0093236 -0.41022816
-98.425156 4.3657522 -0.40737104
-98.362305 4.4343238 -0.55022818
-85.382301 4.2276568 -0.35689482
-84.9823 4.2343235 -0.31022817
-84.742302 4.2143235 -0.42022818
-83.595634 4.2143235 -0.39022815
-64.242302 4.2983236 -0.43422812
-64.602303 4.7943234 -0.55022818
-64.242294 4.6243238 -0.41022819
-64.9123 4.8943238 -0.37022817
-64.442307 4.8243237 -0.42022818
-64.057297 6.2643237 -0.47522813
-63.682304 6.1993237 -0.42022815
-63.582302 6.1843233 -0.37022817
-64.237312 6.4526563 -0.45689479
-18.102301 6.5943236 -0.37022817
-64.2323 6.6143236 -0.41022816
-18.122301 6.6543236 -0.49022815
-17.962301 6.6343236 -0.37022817
-67.682297 7.7243233 -0.48022813
-59.187305 7.7900395 -0.36165676
-58.874748 7.7840533 -0.44049841
-58.601978 7.7873507 -0.44447061
-58.223675 7.7750125 -0.45505568
-58.007305 7.774323 -0.45022815
-57.752312 7.774322 -0.44737107
-57.530731 7.7711654 -0.4512808
-59.407303 7.9043236 -0.31022817
-59.228107 7.935339 -0.36845595
-58.951405 7.9402065 -0.44098437
-58.635479 7.9144711 -0.4493584
-58.342773 7.9141641 -0.44681329
-57.726162 7.901329 -0.45221952
-57.451393 7.899951 -0.46912274
-57.137848 7.8989539 -0.52873558
-59.218452 8.2552919 -0.40022799
-58.94751 8.2647562 -0.53153265
-113.5223 8.6543236 -0.34022817
-59.411629 8.6023235 -0.3155615
-59.232719 8.5914402 -0.39635408
-58.948013 8.563467 -0.53908533
-115.66479 8.8118229 -0.36272815
-115.28564 8.7893238 -0.37689483
-114.99525 8.7843246 -0.39081645
-114.7683 8.8043242 -0.38922819
-113.8223 8.9143238 -0.45022815
-113.5023 8.714324 -0.47022814
-113.2823 8.7293234 -0.41022816
-112.9223 8.7268238 -0.41272813
-59.433147 8.8734903 -0.31106156
-59.235306 8.8441391 -0.40098298
-58.964794 8.8304653 -0.52794719
-59.417324 9.1686096 -0.31451395
-59.235683 9.1164503 -0.39554718
-58.933636 9.1382017 -0.5576911
-58.782299 9.2643232 -0.59022814
-59.433872 9.4161015 -0.31556162
-59.296585 9.4779606 -0.38970858
-58.962891 9.4282637 -0.55689484
-58.782295 9.4000378 -0.59022814
-59.415634 9.674324 -0.31689483
-59.263901 9.7398329 -0.41655463
-58.988255 9.7835131 -0.55941755
-59.632301 9.924324 -0.32022816
-59.192596 10.095355 -0.40489459
-58.915661 10.120267 -0.47237107
-58.629871 10.154786 -0.44728237
-59.5023 10.254324 -0.34022814
-59.161804 10.247657 -0.38330498
-58.893372 10.250553 -0.44183287
-58.690353 10.253715 -0.44877762
5.6276989 22.244324 -0.31022817
5.8643661 22.314323 -0.33689484
6.0176992 22.294323 -0.31022817
-52.802299 -15.045676 -0.29022816
-52.882301 -14.765676 -0.29022816
-52.622299 -14.765676 -0.29022816
-52.972301 -14.450677 -0.095228158
-53.312302 -14.265676 -0.29022816
-53.006298 -14.173677 -0.13422816
-52.762302 -14.345676 -0.27022815
-53.382301 -13.965676 -0.29022816
-52.953728 -13.945677 -0.16451387
-55.013729 -13.665677 -0.27022815
-53.442299 -13.695677 -0.29022816
-52.968964 -13.69901 -0.030228158
-55.042301 -13.385676 -0.27022815
-55.5723 -13.055676 -0.18022814
-55.012302 -13.050677 -0.21522816
-53.282299 -13.045675 -0.25022817
-52.722301 -12.925676 -0.15022816
-55.567101 -12.712076 -0.14222817
-55.442299 -12.675676 -0.21022816
-54.979897 -12.716876 -0.20462814
-53.402302 -12.745676 -0.23022816
-52.862301 -12.605677 -0.15022816
-52.757301 -12.750676 -0.13772815
-55.561539 -12.439523 -0.136382
-55.299446 -12.424725 -0.14927579
-54.948555 -12.429425 -0.19772816
-54.872299 -12.405676 -0.22022817
-53.532303 -12.475677 -0.17022815
-52.891392 -12.431131 -0.11386452
-52.762302 -12.425677 -0.10800593
-55.555027 -12.17204 -0.14840998
-55.351894 -12.139277 -0.17742817
-55.067307 -12.134008 -0.15356147
-54.840076 -12.134565 -0.17911702
-53.522301 -12.005676 -0.15022816
-52.93697 -12.141677 -0.13156149
-52.763973 -12.137341 -0.10522816
-55.548965 -11.820676 -0.16356148
-55.353737 -11.845677 -0.16927581
-55.005157 -11.855391 -0.1656567
-54.869801 -11.833177 -0.16522814
-53.712303 -11.845676 -0.15022816
-53.633064 -11.836446 -0.18715125
-53.137302 -11.815676 -0.15022816
-52.937592 -11.866853 -0.13963991
-52.771389 -11.86204 -0.086591795
-55.550301 -11.534676 -0.15022817
-55.346653 -11.575243 -0.16066298
-55.003128 -11.548942 -0.1526771
-54.800198 -11.547781 -0.13864924
-53.804302 -11.561677 -0.20622818
-53.644806 -11.618177 -0.18522815
-53.175632 -11.527343 -0.13856149
-52.945023 -11.537495 -0.12659177
-52.776417 -11.549207 -0.070228159
-55.550537 -11.248029 -0.14669876
-55.364723 -11.220828 -0.14901605
-55.00761 -11.237736 -0.14434579
-54.853302 -11.234677 -0.11722815
-53.832302 -11.280677 -0.19022815
-53.432301 -11.185677 -0.12022816
-53.229706 -11.26049 -0.13985783
-52.898308 -11.225009 -0.10022814
-52.779797 -11.315676 -0.082728162
-55.567005 -10.959795 -0.12905169
-55.357002 -10.946611 -0.1346031
-55.012314 -10.949009 -0.13133919
-54.831242 -10.94357 -0.10075444
-54.0448 -10.965676 -0.14272815
-53.835987 -10.858308 -0.1081229
-53.511871 -10.89959 -0.12414117
-53.227818 -10.937401 -0.12609018
-52.906673 -10.945187 -0.10193543
-52.782299 -10.892343 -0.083561487
-55.547298 -10.680676 -0.12522817
-55.367588 -10.645383 -0.12463985
-55.008312 -10.643427 -0.11572814
-54.824726 -10.625675 -0.10295542
-54.154472 -10.648285 -0.080662943
-53.838085 -10.663222 -0.085666716
-53.560574 -10.639813 -0.10884879
-53.252609 -10.639009 -0.11628872
-52.88607 -10.644053 -0.085363269
-52.782299 -10.650677 -0.08522816
-55.5923 -10.455677 -0.090228155
-55.368446 -10.31858 -0.093776494
-54.984325 -10.350009 -0.085561462
-54.795856 -10.352104 -0.083442412
-54.422302 -10.299008 -0.068005934
-54.162308 -10.313858 -0.088409983
-53.835636 -10.355419 -0.10715119
-53.551743 -10.353601 -0.1173979
-53.26231 -10.340677 -0.10322813
-52.90184 -10.336786 -0.070672579
-55.367054 -10.032795 -0.057007786
-54.984962 -10.046343 -0.032228157
-54.794312 -10.064076 -0.047028162
-54.398296 -10.033676 -0.030228157
-54.144299 -10.050176 -0.062728137
-53.83617 -10.00773 -0.077151194
-53.545876 -10.008362 -0.089332588
-53.240475 -10.026402 -0.082955405
-52.954891 -10.084194 -0.062820725
-55.342312 -9.8045654 -0.020228155
-55.08897 -9.8223429 -0.010228157
-54.837299 -9.8331757 -0.012728157
-54.332298 -9.7156763 -0.010228157
-54.122753 -9.7674932 -0.030228155
-53.847939 -9.7477293 -0.046125595
-53.536194 -9.7184534 -0.055228159
-53.272701 -9.7896757 -0.061428156
-53.8423 -9.5856762 -0.010228157
-53.542301 -9.5656767 -0.019319065
-52.948971 -9.4990091 -0.016894823
-54.012299 -9.0056763 -0.15022816
-53.846649 -9.0074158 -0.14588031
-53.558666 -9.0074949 -0.16840996
-53.195938 -9.0165863 -0.2047736
-53.016304 -9.0156765 -0.11422817
-56.402302 -8.8456764 -0.010228157
-56.262581 -8.8271246 -0.010228157
-56.082302 -8.785676 -0.010228157
-54.009449 -8.9642487 -0.15308531
-53.845428 -8.9660702 -0.14709084
-53.561836 -8.9554453 -0.1325537
-53.199749 -8.9388704 -0.12639834
-53.029438 -8.9171047 -0.10022815
-56.402302 -8.6356764 -0.010228157
-56.313137 -8.5365324 -0.010228157
-52.9823 -8.6056767 -0.010228157
-56.285831 -8.3186178 -0.010228157
-55.2323 -8.2206764 -0.010228157
-55.160763 -8.1795216 -0.010228157
-52.962299 -8.1156769 -0.010228157
-52.742302 -8.1756763 -0.040228158
-56.278519 -7.9294605 -0.010228157
-55.307301 -7.8756771 -0.010228157
-55.1073 -8.0156765 -0.010228157
-52.982304 -8.0206766 -0.010228157
-52.762302 -8.0256767 -0.13022816
-114.7123 -7.5156765 -0.13022816
-114.4023 -7.5056763 -0.13022816
-113.9823 -7.5056763 -0.27022815
-56.269932 -7.6504388 -0.010228157
-55.272301 -7.6556764 -0.010228157
-55.022297 -7.6142478 -0.010228157
-115.64851 -7.4176502 -0.14627759
-115.33855 -7.4209251 -0.14399867
-115.0285 -7.414536 -0.14567117
-114.73924 -7.4176135 -0.13280882
-114.42568 -7.4185076 -0.13041681
-114.17883 -7.3916774 -0.12079954
-113.88229 -7.410677 -0.10022816
-56.246048 -7.321301 -0.010228157
-56.062302 -7.3256764 -0.010228157
-55.037304 -7.3440113 -0.010228157
-52.802299 -7.4256763 -0.15022816
-115.6223 -7.1406765 -0.060228154
-115.3503 -7.1456766 -0.054228157
-115.0143 -7.1416764 -0.058228157
-114.67373 -7.0371051 -0.010228157
-114.49564 -6.9990096 -0.056894824
-114.0873 -7.0156765 -0.10022816
-56.230835 -7.0184751 -0.010228157
-56.0023 -6.9906754 -0.010228157
-55.622299 -6.9412317 -0.010228157
-55.366295 -6.9296761 -0.010228157
-54.960476 -7.0602217 -0.010228157
-54.735634 -7.0078988 -0.010228157
-54.454067 -6.9856763 -0.010228157
-54.179443 -6.9837718 -0.010228157
-53.772297 -7.0590096 -0.010228157
-115.65564 -6.7590098 -0.12356149
-115.2923 -6.7356768 -0.13022816
-115.0223 -6.8256764 -0.13022816
-114.72231 -6.7956762 -0.15022816
-114.4223 -6.7456765 -0.096894823
-114.05231 -6.7156758 -0.063561492
-56.232937 -6.7413507 -0.010228157
-56.015911 -6.7597184 -0.010228157
-55.272301 -6.8556767 -0.010228157
-55.013412 -6.827898 -0.010228157
-54.75341 -6.7767868 -0.010228157
-54.460758 -6.8441381 -0.010228157
-53.722301 -6.7323432 -0.010228157
-115.6723 -6.4056764 -0.12022816
-115.3823 -6.3956766 -0.13022816
-115.0423 -6.3956766 -0.13022816
-114.6923 -6.4156761 -0.14022815
-114.14516 -6.4342475 -0.050228156
-56.217083 -6.4467072 -0.010228157
-56.003185 -6.4065652 -0.010228157
-55.602303 -6.3556767 -0.010228157
-54.844803 -6.4081764 -0.010228157
-114.11 -6.1549072 -0.042535849
-113.9823 -6.1056762 -0.030228157
-56.210667 -6.1567268 -0.010228157
-55.967609 -6.1638556 -0.010228157
-55.668972 -6.1167874 -0.010228157
-55.344299 -6.1436758 -0.010228157
-54.962299 -6.0856762 -0.010228157
-54.714561 -6.1043859 -0.010228157
-54.438969 -6.0465088 -0.010228157
-54.267296 -6.0456762 -0.010228157
-53.7673 -6.1356764 -0.010228157
-53.6623 -6.075676 -0.010228157
-115.6823 -5.7256765 -0.070228159
-115.4623 -5.7256765 -0.090228155
-114.67496 -5.8798232 -0.010228157
-114.43176 -5.8414803 -0.011462726
-114.16866 -5.8220539 -0.012228157
-113.9823 -5.8456764 -0.090228155
-56.199642 -5.8030095 -0.010228157
-55.985386 -5.8502917 -0.010228157
-55.518967 -5.8456764 -0.010228157
-55.4063 -5.8016763 -0.010228157
-55.022301 -5.9256763 -0.010228157
-54.687851 -5.8581767 -0.010228157
-54.432117 -5.8528786 -0.010228157
-54.256813 -5.8451767 -0.010228157
-53.6423 -5.7656765 -0.010228157
-53.282303 -5.8556767 -0.010228157
-53.082302 -5.8856764 -0.010228157
-115.6223 -5.4156761 -0.070228159
-115.33563 -5.4923425 -0.083561487
-115.0923 -5.6656761 -0.090228155
-114.7323 -5.6606765 -0.050228156
-114.40414 -5.5687056 -0.01325846
-114.14125 -5.5679274 -0.013478157
-56.197418 -5.515111 -0.010228157
-56.0023 -5.5171041 -0.010228157
-54.681381 -5.5317221 -0.010228157
-54.45573 -5.5459743 -0.010228157
-54.26897 -5.4906769 -0.010228157
-53.629799 -5.513176 -0.010228157
-53.232296 -5.5406761 -0.010228157
-52.988968 -5.5390096 -0.010228157
-52.722301 -5.5456762 -0.060228154
5.3736987 -5.4416761 -0.010228157
-115.6923 -5.1356764 -0.070228159
-115.4123 -5.1256762 -0.070228159
-115.0823 -5.2790093 -0.090228163
-114.65231 -5.1976762 -0.024228157
-114.42306 -5.1886411 -0.010968897
-114.14174 -5.2376184 -0.01709383
-113.9823 -5.1656761 -0.090228155
-56.19585 -5.2347097 -0.010228157
-55.986694 -5.2496758 -0.010228157
-54.685532 -5.2318072 -0.010228157
-54.449139 -5.2416248 -0.010228157
-54.26025 -5.2325726 -0.010228157
-53.540871 -5.2713904 -0.010228157
-53.286919 -5.2779837 -0.010228157
-52.922302 -5.2656765 -0.010228157
-52.742302 -5.1656761 -0.11022816
5.3710322 -5.3123431 -0.010228157
5.4834132 -5.2185335 -0.010228157
-115.6223 -4.9056764 -0.070228159
-115.3323 -4.8756762 -0.070228159
-115.06897 -4.972343 -0.070228159
-114.65188 -4.9517636 -0.013706419
-114.43807 -4.9390106 -0.01204634
-114.16185 -4.9292312 -0.012672602
-56.193714 -4.9671054 -0.010228157
-55.97089 -4.9916282 -0.010228157
-55.332298 -4.9656763 -0.010228157
-54.692642 -4.9374413 -0.010228157
-54.440506 -4.9417367 -0.010228157
-54.255253 -4.9339118 -0.010228157
-53.862301 -4.8056765 -0.090228155
-53.542301 -4.9556761 -0.010228157
-53.202297 -4.9106765 -0.010228157
-53.002304 -4.9423432 -0.010228157
5.3843656 -4.9923429 -0.010228157
5.5176988 -5.0029178 -0.012297123
-115.70452 -4.5923429 -0.023561491
-115.3623 -4.5776763 -0.046228159
-114.96231 -4.5856762 -0.020228157
-114.7207 -4.6208758 -0.011628157
-114.43924 -4.6524386 -0.011810891
-114.16246 -4.658906 -0.011920464
-113.9823 -4.7256765 -0.010228157
-56.186745 -4.6701212 -0.010228157
-55.943298 -4.653676 -0.010228157
-55.752304 -4.6156759 -0.010228157
-55.288967 -4.6990094 -0.010228157
-54.708244 -4.6518493 -0.010228157
-54.436947 -4.6516752 -0.010228157
-54.2463 -4.6238985 -0.010228157
-53.8423 -4.7656765 -0.090228163
-53.515636 -4.6656761 -0.010228157
-53.242298 -4.6303825 -0.010228157
-52.975632 -4.6323428 -0.010228157
5.3020229 -4.6645942 -0.010228157
5.4410324 -4.6256762 -0.010228157
-115.66637 -4.3484035 -0.015682703
-115.36675 -4.327899 -0.020228157
-115.01338 -4.3248248 -0.014057945
-114.74075 -4.344955 -0.011914904
-114.44227 -4.3527265 -0.01209866
-114.15594 -4.359117 -0.018068155
-113.9823 -4.4456763 -0.090228155
-56.183922 -4.3792772 -0.010228157
-55.960747 -4.3685336 -0.010228157
-55.748013 -4.3228197 -0.010228157
-54.9673 -4.3106766 -0.010228157
-54.73806 -4.3410444 -0.010228157
-54.432819 -4.352212 -0.010228157
-54.227932 -4.3411694 -0.010228157
-53.797302 -4.2656765 -0.10022815
-53.545635 -4.3023429 -0.026894823
-53.218975 -4.3406768 -0.018561488
-52.955029 -4.3584037 -0.019319065
5.3976989 -4.4656763 -0.010228157
5.5154767 -4.4123435 -0.010228157
-115.65337 -4.041676 -0.012894824
-115.3568 -4.0266771 -0.016228158
-115.01619 -4.0367527 -0.014228157
-114.73692 -4.0501852 -0.011384226
-114.45335 -4.0491719 -0.013864521
-114.15627 -4.0553312 -0.014710913
-56.150787 -4.0911307 -0.010228157
-55.971233 -4.0459175 -0.010228157
-55.615631 -3.9390097 -0.010228157
-54.902302 -4.0456762 -0.010228157
-54.74099 -4.0378981 -0.010228157
-54.431293 -4.0424266 -0.010228157
-54.230949 -4.0543427 -0.010228157
-53.806919 -4.1210604 -0.090228155
-53.496586 -4.0742478 -0.010228157
-53.216301 -4.035676 -0.030228158
-52.956589 -4.0142469 -0.034037679
6.1808572 -3.9840975 -0.010228157
-115.64483 -3.7564454 -0.018433286
-115.33599 -3.7467294 -0.016017631
-115.02953 -3.7534895 -0.012728157
-114.73461 -3.7419348 -0.01151848
-114.4472 -3.7420845 -0.014898814
-114.14873 -3.7305586 -0.016999809
-113.9823 -3.7856762 -0.090228155
-56.177296 -3.8490095 -0.010228157
-55.929996 -3.7922149 -0.010612772
-55.589798 -3.7456763 -0.010228157
-54.932968 -3.7136762 -0.010228157
-54.735382 -3.7538471 -0.010228157
-54.436993 -3.7374401 -0.010228157
-54.230957 -3.7546766 -0.010228157
-53.788971 -3.6056764 -0.090228163
-53.584301 -3.6556764 -0.076228149
-53.214802 -3.7206762 -0.022728156
-52.920868 -3.7771051 -0.034513872
-52.712303 -3.7156763 -0.030228157
5.257699 -3.8028195 -0.010228157
5.9976993 -3.7956762 -0.010228157
6.1584492 -3.7731776 -0.010228157
-115.62656 -3.4492478 -0.018799584
-115.332 -3.4513905 -0.013656728
-115.03423 -3.4541373 -0.014458926
-114.72047 -3.4587424 -0.013294824
-114.44281 -3.4617176 -0.01168649
-114.14954 -3.4682951 -0.013680536
-113.9823 -3.4456763 -0.010228157
-56.167625 -3.4523427 -0.010228157
-55.947559 -3.4810853 -0.010228157
-55.605156 -3.4685333 -0.010228157
-54.938015 -3.4985335 -0.010228157
-54.731018 -3.453625 -0.010228157
-54.433968 -3.4403429 -0.010228157
-54.225327 -3.4444642 -0.010228157
-53.781197 -3.5190094 -0.09022817
-53.504295 -3.495676 -0.048228156
-53.193405 -3.452343 -0.05022816
-52.965027 -3.4274948 -0.062046323
-52.742302 -3.5256763 -0.050228156
6.171699 -3.5456765 -0.010228157
-115.6423 -3.1581764 -0.020228157
-115.33105 -3.1513009 -0.017728157
-115.02026 -3.1502914 -0.017407645
-114.72988 -3.1487396 -0.019237163
-114.44702 -3.1498697 -0.022486219
-114.14685 -3.1420913 -0.01720929
-113.97897 -3.1323431 -0.023561491
-56.148296 -3.1496763 -0.010228157
-55.918304 -3.1171756 -0.010228157
-55.703186 -3.1319442 -0.010228157
-55.442299 -3.2106764 -0.010228157
-54.929569 -3.1402216 -0.010228157
-54.733341 -3.1465716 -0.010228157
-54.445145 -3.1332948 -0.010863078
-54.228508 -3.1308482 -0.012297123
-53.738968 -3.0156765 -0.090228148
-53.55468 -3.0847239 -0.055942439
-53.239796 -3.1231761 -0.052728161
-52.917297 -3.1706762 -0.03356149
-52.762302 -3.2256763 -0.11022816
-115.62872 -2.8499622 -0.0230853
-115.33504 -2.8590097 -0.024167551
-115.01355 -2.8603103 -0.025350105
-114.72486 -2.8322544 -0.022845602
-114.44205 -2.8466895 -0.013645877
-114.14474 -2.8443809 -0.015551897
-113.97659 -2.825676 -0.013085299
-56.195969 -2.826164 -0.010228157
-55.924198 -2.8631365 -0.010545617
-55.719238 -2.9113169 -0.010228157
-54.942303 -2.8590097 -0.010228157
-54.751652 -2.8476758 -0.011894823
-54.443012 -2.8322213 -0.014228157
-54.219128 -2.8421843 -0.012767839
-53.778664 -2.9384034 -0.088409968
-53.50119 -2.9334538 -0.058005929
-53.174297 -2.8416762 -0.062228162
-52.952301 -2.8363907 -0.062371004
-52.782299 -2.8256764 -0.11022816
-115.64668 -2.5394266 -0.033978153
-115.33937 -2.5350878 -0.033169333
-115.02809 -2.5588343 -0.031807099
-114.72687 -2.55878 -0.034366079
-114.44263 -2.5435138 -0.026264185
-114.13567 -2.5417664 -0.018799581
-113.97139 -2.5347674 -0.021137247
-56.164249 -2.5440633 -0.010228157
-55.93985 -2.540364 -0.010384407
-55.74165 -2.5550096 -0.010228157
-54.939693 -2.5013282 -0.010228157
-54.739319 -2.55674 -0.013632413
-54.43515 -2.5256763 -0.017847201
-54.218636 -2.531343 -0.015561488
-53.756584 -2.4728189 -0.085942447
-53.542305 -2.54301 -0.07089483
-53.255642 -2.4773428 -0.078561485
-52.961197 -2.4845653 -0.054672603
-115.66834 -2.2628856 -0.03580955
-115.35126 -2.2719924 -0.034438681
-115.03756 -2.2599621 -0.033085294
-114.72215 -2.2289493 -0.044409957
-114.43213 -2.2476618 -0.016182352
-114.12551 -2.2418253 -0.016190886
-113.96113 -2.227494 -0.016894825
-56.162621 -2.247864 -0.010228157
-55.942947 -2.2407162 -0.010228157
-55.720371 -2.2172887 -0.010228157
-54.948006 -2.2485335 -0.013799586
-54.761562 -2.2403936 -0.019662116
-54.433651 -2.2302217 -0.019319063
-54.223942 -2.2420025 -0.018391419
-53.782299 -2.3656764 -0.070228159
-53.507515 -2.1978502 -0.054575983
-53.218967 -2.3223431 -0.063561492
-52.938091 -2.2940974 -0.058649212
-52.702301 -2.2056763 -0.056894824
4.1176991 -2.1156764 -0.010228157
5.6876993 -2.1256764 -0.010228157
5.8495173 -2.1474943 -0.010228157
6.1769581 -2.1441946 -0.01319112
6.4400077 -2.1664453 -0.02176662
6.7468657 -2.1781764 -0.027728161
7.052937 -2.1780572 -0.024513872
-115.65141 -1.9049988 -0.042092547
-115.34986 -1.9198983 -0.03422815
-115.04837 -1.9552414 -0.034575976
-114.7159 -1.9200516 -0.024290647
-114.44023 -1.934068 -0.025055734
-114.14598 -1.939605 -0.021775767
-113.95168 -1.9363428 -0.016228158
-56.159405 -1.9438212 -0.011052898
-55.941341 -1.94131 -0.010228157
-55.709393 -1.9410096 -0.010228157
-54.966923 -1.9533688 -0.011253797
-54.758087 -1.9498867 -0.017070262
-54.436527 -1.9575995 -0.019458922
-54.206619 -1.9486763 -0.021228151
-53.749451 -2.0099618 -0.080228157
-53.508011 -2.009486 -0.054037679
-53.246304 -1.9643427 -0.068894826
-52.940086 -1.9486394 -0.065042973
-52.752304 -1.8856764 -0.050228156
-1.2434773 -1.879794 -0.045522273
-1.044394 -1.8556767 -0.045576978
-0.74380624 -1.8557843 -0.034099113
-0.48360527 -1.8628502 -0.046749879
-0.12563425 -1.852343 -0.046894819
0.17269908 -1.9106762 -0.035228156
0.46369916 -1.8856764 -0.034228154
0.76436573 -1.8956765 -0.026894823
1.0599214 -1.8901206 -0.021339267
1.3451992 -1.8706763 -0.017728157
1.693949 -1.8763007 -0.017103154
1.958027 -1.8768234 -0.015801925
2.280776 -1.8820868 -0.020484565
2.5313096 -1.8809539 -0.013283713
2.8657763 -1.8941381 -0.014458925
3.1615086 -1.8961525 -0.017371014
3.4499791 -1.9207641 -0.015140438
3.774601 -1.9051131 -0.014453509
4.0420947 -1.9401817 -0.01550288
4.3696995 -1.9513907 -0.01937101
4.6364493 -1.9652599 -0.023561485
4.93679 -1.9365852 -0.023864519
5.2753458 -1.9680295 -0.020228157
5.5416284 -1.9385332 -0.014871011
5.8511882 -1.9484668 -0.024646757
6.1481752 -1.9204382 -0.033561479
6.4576988 -2.0037413 -0.032163642
6.7423148 -1.9456763 -0.039458927
7.0500064 -1.9502915 -0.034843542
-115.64845 -1.648753 -0.027151227
-115.34717 -1.6634541 -0.023117045
-115.03027 -1.6446421 -0.030572977
-114.72353 -1.6480305 -0.035477009
-114.44553 -1.6378095 -0.023403503
-114.15421 -1.6468815 -0.018782368
-113.94952 -1.6323434 -0.016382001
-56.153805 -1.7317371 -0.010228157
-55.937675 -1.7047145 -0.010228157
-55.732605 -1.7111303 -0.010228157
-55.442303 -1.5256764 -0.010228157
-54.962299 -1.6368763 -0.014228157
-54.772301 -1.6733234 -0.020228157
-54.40897 -1.6401207 -0.019117046
-54.201855 -1.6302216 -0.02340997
-53.736149 -1.5749073 -0.073305078
-53.525333 -1.6281005 -0.067197859
-53.248615 -1.6077818 -0.063912369
-52.940704 -1.6000766 -0.06702815
-52.762302 -1.5956763 -0.060228158
-1.2644062 -1.6646236 -0.068122894
-1.0471658 -1.6327034 -0.077255167
-0.76591206 -1.6609542 -0.064950354
-0.46193725 -1.6547672 -0.084773585
-0.17230092 -1.6406764 -0.045228157
0.26769909 -1.6156764 -0.010228157
0.42436576 -1.6523432 -0.010228157
0.72627056 -1.6771049 -0.02451387
1.0451992 -1.6681763 -0.020228157
1.3676991 -1.5356764 -0.025228158
1.7144731 -1.6295475 -0.027647508
1.9568827 -1.6583292 -0.024513867
2.2516382 -1.6850706 -0.032046337
2.5451994 -1.686926 -0.023561483
2.8482075 -1.6483884 -0.025143405
3.1773655 -1.6376764 -0.01956149
3.4664478 -1.6208546 -0.018621011
3.7465129 -1.6555067 -0.015990866
4.0365219 -1.6392056 -0.020816389
4.3652463 -1.6237894 -0.023435701
4.6606026 -1.6314827 -0.032486212
4.9714823 -1.610271 -0.023201127
5.2534738 -1.6614507 -0.021777447
5.5624809 -1.6478502 -0.0215325
5.8659673 -1.6238096 -0.035028145
6.1628594 -1.6572893 -0.036679767
6.4397001 -1.63901 -0.036894821
6.797698 -1.6372552 -0.034438681
7.0626993 -1.6276764 -0.030228157
-115.65386 -1.3589289 -0.030951038
-115.33561 -1.3478092 -0.024628153
-115.04619 -1.3451569 -0.028150227
-114.72217 -1.3312578 -0.032460697
-114.44983 -1.3321245 -0.019106656
-114.14558 -1.3370446 -0.019596571
-113.94781 -1.3393127 -0.01977361
-56.149231 -1.2841377 -0.010228157
-55.944561 -1.3291762 -0.010228157
-55.745937 -1.2784035 -0.010228157
-55.445633 -1.3156763 -0.010228157
-54.965641 -1.3623431 -0.016339269
-54.760761 -1.3625993 -0.024074307
-54.408405 -1.3434539 -0.021339266
-54.202896 -1.3521471 -0.025522271
-53.742302 -1.2056763 -0.070228159
-53.513405 -1.2730838 -0.064302213
-53.210873 -1.2828192 -0.065942444
-52.941395 -1.3002217 -0.069319062
-52.782299 -1.2656764 -0.010228157
-1.2711897 -1.312343 -0.039117053
-1.0575641 -1.3556764 -0.07654392
-0.72693843 -1.3401687 -0.07022813
-0.41773939 -1.3404129 -0.085666716
-0.24515806 -1.3371049 -0.067371011
0.55769902 -1.342343 -0.010228157
0.88103241 -1.3490096 -0.010228157
1.1676991 -1.3106763 -0.010228157
1.387699 -1.3256763 -0.010228157
1.7252667 -1.3364872 -0.027525451
1.9523418 -1.3363906 -0.031299576
2.2526991 -1.3092477 -0.032371011
2.5798044 -1.3355007 -0.026017625
2.8546219 -1.3356764 -0.023817893
3.1623003 -1.3347028 -0.017661782
3.4616988 -1.3608074 -0.017880326
3.7422137 -1.3673968 -0.020765787
4.0599532 -1.3400426 -0.022904208
4.3645334 -1.3545367 -0.028455997
4.6560655 -1.3507781 -0.033289365
4.9310322 -1.3693429 -0.030228145
5.261508 -1.3447241 -0.032132916
5.5715175 -1.378767 -0.0367736
5.8335342 -1.3427597 -0.039394811
6.1488996 -1.3232764 -0.031028159
6.4764495 -1.3056762 -0.021478156
6.7757635 -1.3243858 -0.022486221
7.0712132 -1.3818926 -0.017795723
-115.64028 -1.0241638 -0.024009662
-115.34294 -1.03301 -0.017228154
-115.04921 -1.0549074 -0.022343535
-114.72021 -1.0535853 -0.023319058
-114.4454 -1.0576198 -0.021888925
-114.14532 -1.0620475 -0.021195892
-113.94878 -1.0556765 -0.02094244
-56.147148 -1.0453315 -0.010228157
-55.938419 -1.0406041 -0.010228157
-55.714054 -1.0535023 -0.010228157
-55.442303 -1.0590097 -0.010228157
-54.990578 -1.060849 -0.015055745
-54.776051 -1.0431762 -0.023353156
-54.411068 -1.0320178 -0.019984255
-54.186638 -1.0813521 -0.025903827
-53.724522 -1.1634542 -0.070228159
-53.508385 -0.9621979 -0.058054239
-53.300632 -1.0290097 -0.065228157
-52.903423 -1.0578986 -0.064672604
-52.688965 -1.0656763 -0.05022816
-1.6423008 -0.94692647 -0.028978156
-1.3173008 -1.0156765 -0.042103149
-1.0379531 -1.0521981 -0.082402043
-0.72524214 -1.0533231 -0.068169296
-0.42000583 -1.0499389 -0.084654346
-0.24230094 -1.0103431 -0.099561468
0.23769908 -0.94567633 -0.030228157
0.40769908 -1.1356764 -0.030228157
0.73103237 -1.0456764 -0.026894823
1.0776992 -1.0506763 -0.025228156
1.3610324 -1.032343 -0.016894823
1.7138898 -1.0347239 -0.029751956
1.9362707 -1.0442477 -0.031299576
2.2513161 -1.047804 -0.031930279
2.5694065 -1.0305544 -0.027789131
2.8608241 -1.0405203 -0.016321905
3.1578879 -1.0594501 -0.016831929
3.4579098 -1.0587289 -0.022438679
3.751466 -1.0360662 -0.025552824
4.0531368 -1.0491852 -0.028824639
4.373456 -1.040828 -0.030228149
4.6342316 -1.0507431 -0.040094808
4.9734879 -1.0640973 -0.026807094
5.2513494 -1.0796448 -0.028958309
5.5730071 -1.0753061 -0.0312158
5.8631268 -1.0899621 -0.029942431
6.1396999 -1.0920763 -0.023828158
6.4377003 -1.0831764 -0.030228155
6.7600517 -1.079794 -0.019639922
7.059238 -1.0995225 -0.024074312
-115.64739 -0.73007363 -0.021291981
-115.33926 -0.73774821 -0.016354281
-115.0442 -0.73470294 -0.020139657
-114.7317 -0.75567627 -0.029190406
-114.44177 -0.75040346 -0.027591782
-114.14446 -0.75048053 -0.025647143
-113.95425 -0.74424773 -0.021180537
-56.141975 -0.7336762 -0.01056149
-55.943695 -0.73556852 -0.010228157
-55.685791 -0.71286929 -0.010228157
-55.3423 -0.60567635 -0.010228157
-54.995647 -0.76325208 -0.015076642
-54.773415 -0.73308372 -0.023561491
-54.407093 -0.74527633 -0.017428156
-54.139442 -0.81781906 -0.030228151
-53.722301 -0.84567636 -0.070228159
-53.53054 -0.72861767 -0.056698728
-53.243633 -0.78700966 -0.066228159
-52.923969 -0.80317634 -0.066894822
-52.7323 -0.77567637 -0.050228156
-1.6168308 -0.72772753 -0.014159779
-1.3585169 -0.73108166 -0.048065983
-1.0250596 -0.77602106 -0.077814363
-0.7534287 -0.73349583 -0.03067928
-0.46796137 -0.76114804 -0.076643214
-0.22230095 -0.72081137 -0.098876774
0.19769907 -0.74967635 -0.038228154
0.47388953 -0.73424768 -0.01403768
0.7648657 -0.71234322 -0.013228155
1.0397505 -0.7728557 -0.014330721
1.3967899 -0.73658544 -0.012500885
1.6816487 -0.70937055 -0.015833249
1.954605 -0.70278978 -0.019918874
2.2538848 -0.70579201 -0.01820503
2.5634274 -0.73307222 -0.015436486
2.8404391 -0.72471714 -0.018036371
3.147162 -0.71210498 -0.017013868
3.462816 -0.70986223 -0.017902574
3.7646677 -0.71578872 -0.015846131
4.0606256 -0.72713971 -0.024374494
4.3508911 -0.71950626 -0.024908999
4.6727443 -0.72035515 -0.029127229
4.9634929 -0.71745187 -0.029106649
5.2799735 -0.73476732 -0.027273601
5.560287 -0.71344095 -0.027404619
5.8579779 -0.70178741 -0.019394821
6.1276989 -0.68447626 -0.017028155
6.4216027 -0.69494462 -0.021447668
6.7312994 -0.71047628 -0.027028155
7.0626988 -0.68496209 -0.024513869
-115.64152 -0.42291209 -0.020472053
-115.33997 -0.43347058 -0.016257565
-115.03797 -0.43269923 -0.022747234
-114.72987 -0.44965693 -0.030810667
-114.44583 -0.44567642 -0.023658101
-114.14635 -0.4412739 -0.021423118
-113.9506 -0.4856762 -0.0157454
-56.135406 -0.45294911 -0.010228157
-55.932617 -0.45585826 -0.010228157
-55.679512 -0.45419481 -0.010228157
-55.362301 -0.58567631 -0.010228157
-55.004467 -0.45270342 -0.015633564
-54.773308 -0.46267629 -0.021228159
-54.392723 -0.43958941 -0.015880328
-54.136978 -0.50567633 -0.030228149
-53.713726 -0.55710489 -0.070228159
-53.539799 -0.41234294 -0.070228137
-53.259445 -0.46186683 -0.062609106
-52.9123 -0.47767636 -0.063561469
-52.762299 -0.45234299 -0.070228159
-1.639963 -0.46203995 -0.01334504
-1.3189676 -0.45067635 -0.056061488
-1.0532687 -0.44438595 -0.057324916
-0.74803758 -0.43792433 -0.024646753
-0.45093736 -0.4038581 -0.050682686
-0.16563426 -0.42500964 -0.064894818
0.24569909 -0.48567629 -0.026228156
0.51769906 -0.48567629 -0.014672601
0.75446367 -0.44097033 -0.011698745
1.009873 -0.43176326 -0.015445548
1.4035527 -0.42372522 -0.015106206
1.6871467 -0.44678062 -0.010841654
1.9534001 -0.44175106 -0.011069277
2.2564788 -0.44304723 -0.011073227
2.5600529 -0.44646072 -0.011502665
2.8517332 -0.44556561 -0.011222632
3.1589181 -0.43970066 -0.013154984
3.4590216 -0.43613988 -0.01208246
3.7596114 -0.42655867 -0.011845804
4.0571108 -0.43361747 -0.016110506
4.3578286 -0.42465064 -0.018561484
4.6588159 -0.43511748 -0.019420696
4.9704738 -0.43935385 -0.021453954
5.2500629 -0.43928751 -0.018422596
5.5576978 -0.44720593 -0.018934032
5.854537 -0.43580294 -0.017823089
6.1211395 -0.44610626 -0.021626001
6.4385428 -0.442296 -0.029101385
6.7605114 -0.45598882 -0.029603146
