# .PCD v0.7 - Point Cloud Data file format
VERSION 0.7
FIELDS x y z
SIZE 4 4 4
TYPE F F F
COUNT 1 1 1
WIDTH 1503
HEIGHT 1
VIEWPOINT 0 0 0 1 0 0 0
POINTS 1503
DATA ascii
-44.407112 9.145381 -3.0123556
-54.794384 10.125041 -2.1628959
-52.955986 10.118864 -2.279788
-50.897026 10.160353 -2.637152
-49.030426 10.226912 -2.7819314
-46.888531 10.21528 -2.9977491
-44.800381 10.204945 -2.9461575
-39.250549 35.823456 -2.0950108
-37.802299 35.854324 -2.0202281
-69.137802 37.173813 -2.3629782
-67.55912 37.139347 -2.2783263
-39.435871 37.186947 -2.4347773
-37.762138 37.172165 -2.388494
-69.016365 39.194805 -3.0976808
-67.623848 38.971951 -3.103183
-38.769691 38.99184 -3.4624422
-37.76133 39.015961 -3.0307171
-68.773438 40.803692 -2.7264273
-67.698547 40.836273 -2.6632395
-38.78186 40.31361 -2.8065786
-37.812119 40.266357 -2.7956767
-52.448971 -16.199007 -0.33022815
-52.879337 -14.731602 -0.23985784
-55.258709 -12.438412 -0.16861369
-52.933975 -12.607494 -0.13516323
-55.044418 -10.848842 -0.11707941
-53.324078 -10.746734 -0.10618223
-115.3423 -8.5856762 -0.47022817
-56.292095 -8.6275692 -0.010228157
-54.721527 -9.5034981 -0.050702095
-53.531132 -9.321456 -0.14144942
-116.53842 -7.2713265 -0.16073786
-115.15976 -7.3833666 -0.21098852
-113.88775 -7.3093128 -0.22477359
-56.194695 -6.647665 -0.010228157
-55.119068 -6.5874987 -0.010228157
-53.610069 -6.8134537 -0.018005934
-116.98412 -4.5968962 -0.014544711
-114.57198 -4.7737517 -0.014148633
-113.9823 -5.0456762 -0.070228159
-56.144382 -4.9596553 -0.010228157
-54.671501 -4.898315 -0.010228109
-53.316067 -4.7577 -0.024679016
5.4245901 -4.8439946 -0.010732358
6.1777 -4.0442481 -0.010228157
-116.91201 -3.0117369 -0.01573238
-114.67316 -3.036078 -0.019856663
-113.96357 -2.4420946 -0.018884871
-56.114002 -2.6668043 -0.010326196
-54.948772 -2.9733782 -0.011944088
-53.30843 -2.8901653 -0.062575303
3.7306402 -2.0256765 -0.012581098
5.0512609 -2.155813 -0.011871992
6.5969081 -2.7513528 -0.017620891
9.199892 -2.1246064 -1.4714531
10.677988 -2.1524789 -1.5059046
12.366271 -2.1513908 -0.095942445
-116.90016 -0.99615479 -0.016523199
-114.80371 -0.91153914 -0.023448622
-113.95093 -1.1500357 -0.018860627
-56.097504 -1.0481884 -0.010391289
-55.215847 -1.013674 -0.015004714
-53.271698 -0.9114213 -0.063573815
-0.83922958 -0.90785968 -0.048722163
1.4149271 -0.60608292 -0.01504162
3.0026038 -0.76882386 -0.015967861
4.9733329 -0.75533462 -0.023995236
6.876533 -0.80621755 -0.028459908
9.1318827 -0.44505787 -0.18642919
10.61649 -0.27798885 -0.46602398
13.506435 -0.42781216 -0.13197577
-122.01085 1.1461053 -0.45581454
-121.71922 1.3288993 -0.6460526
-118.32389 1.0571634 -0.11429661
-116.9885 0.98985696 -0.015909623
-114.89756 0.85362446 -0.022281263
-113.03545 0.93683034 -0.044167973
-110.96229 0.86556274 -0.041064296
-108.86146 1.0360452 -0.06200425
-107.68984 0.99506289 -0.056895152
-56.078442 0.99238235 -0.021583473
-55.477219 0.97674263 -0.012953688
-53.183315 1.1562365 -0.056371145
-0.72051525 1.1662318 -0.02594283
1.089256 1.2077215 -0.013602604
2.9385874 0.99046439 -0.011083441
4.88375 0.90678084 -0.014471631
7.079608 1.1765394 -0.015897084
8.4260311 0.9414928 -0.084019527
11.637026 0.88720405 -1.3137124
13.511994 1.1335279 -1.0906767
14.086772 0.86199021 -0.51143026
-122.28882 3.1581841 -0.62640125
-120.53814 3.0940421 -1.13902
-119.02164 2.3629465 -0.47828922
-116.92006 2.9678299 -0.063467905
-114.82097 2.9903555 -0.019259522
-113.00347 3.1256297 -0.025418485
-111.03413 3.1033452 -0.034149215
-108.9259 3.1220114 -0.038086236
-107.64802 3.1434345 -0.042109154
-100.06383 3.9366312 -0.022535849
-99.252251 3.9340816 -0.023240196
-94.165665 3.883229 -0.011104069
-93.78093 3.8813815 -0.010396224
-90.133003 3.844789 -0.010228157
-89.676025 3.8377891 -0.010228157
-84.229721 3.7894866 -0.010228157
-83.924828 3.8180735 -0.010228157
-78.834373 3.7129061 -0.017766552
-74.843414 3.5811591 -0.011956236
-73.493988 3.5921125 -0.010688988
-70.320663 3.6446855 -0.011328726
-69.418961 3.6328771 -0.010915183
-66.692993 3.9757195 -0.01860025
-64.918411 3.9492981 -0.043356352
-62.927467 3.9271832 -0.043250173
-60.644207 3.7493222 -0.051075425
-59.099007 3.6099858 -0.035342235
-56.670097 3.5193903 -0.034644075
-55.742973 2.934453 -0.020707045
-52.92178 3.2871616 -0.058235127
-50.990898 3.8231719 -0.038553096
-49.103035 3.7651143 -0.052790757
-47.097672 3.7357218 -0.055912167
-45.294548 3.7431095 -0.043704689
-42.719467 3.4864402 -0.014912492
-41.089012 3.6722891 -0.018876774
-39.005707 3.660641 -0.025237909
-36.879662 3.6407428 -0.026609877
-34.925663 3.2448997 -0.015435576
-33.239552 3.4718506 -0.019078545
-30.732477 3.4642334 -0.020059934
-28.838791 3.4691122 -0.019011438
-26.823536 3.2543378 -0.016816575
-25.183462 3.1474819 -0.022174509
-23.086082 3.3060503 -0.027531723
-21.212004 3.2031686 -0.010228157
-19.019949 3.3249779 -0.010283066
-16.972572 3.295433 -0.010228076
-15.051541 3.2176137 -0.010579684
-13.132951 3.1918962 -0.010835053
-10.786627 2.873435 -0.014362356
-9.3012686 2.6520555 -0.010440283
-7.2701011 3.0541723 -0.014016036
-4.6411605 3.0314212 -0.012611575
-3.2084913 3.0054288 -0.010572137
-0.66183573 2.9663398 -0.015112653
0.83786064 2.9505441 -0.015500686
2.8771145 2.844172 -0.012132687
5.0395069 3.0267937 -0.011732557
6.9861045 2.9477901 -0.023269884
8.5369816 2.9969747 -0.14205375
11.656657 2.480413 -1.7115777
13.743698 2.9077165 -0.98748648
14.132931 3.0195193 -0.88936669
-122.28667 4.8815265 -0.83817405
-120.4445 4.5396981 -1.6094215
-119.90707 4.1248002 -1.8816566
-116.80981 4.9666457 -0.050011624
-114.86383 4.6566682 -0.010647425
-113.00919 4.6958375 -0.013731033
-111.01729 4.7766542 -0.014921401
-108.92181 4.9088984 -0.014783821
-107.51057 4.872067 -0.017067427
-104.82484 4.9402051 -0.010228157
-102.82134 4.9712224 -0.010228157
-100.92548 4.938138 -0.010868391
-99.038567 4.7509718 -0.013572876
-96.974205 4.8959656 -0.010695196
-94.857338 4.7533722 -0.010772034
-93.290565 4.6367264 -0.010228157
-90.962448 4.5753565 -0.010228157
-89.063789 4.565475 -0.010228157
-86.972481 4.6214685 -0.010246954
-84.753952 4.4685769 -0.034294751
-82.983528 4.4963903 -0.034154143
-80.882782 4.5374689 -0.010347758
-78.947838 4.4102349 -0.010409381
-76.930824 4.4859495 -0.010296346
-75.229424 4.4415264 -0.010905882
-72.979538 4.3453059 -0.010228157
-71.024971 4.3214893 -0.010228157
-68.905441 4.355176 -0.010228157
-66.907936 4.4109812 -0.0107722
-65.090088 4.8454046 -0.02082363
-62.905849 4.9661851 -0.025614457
-60.994442 4.9285851 -0.022570185
-58.950653 4.6740379 -0.041669868
-56.895893 4.6841226 -0.022984667
-55.538475 4.8694286 -0.043308571
-52.741909 4.4369354 -0.018705955
-51.085438 4.397954 -0.024418814
-48.948463 4.8118873 -0.020807037
-47.212666 5.0573502 -0.029372372
-45.078854 5.1071601 -0.046604052
-42.919552 4.6577373 -0.033422936
-40.749302 4.7766171 -0.014490584
-39.146099 5.0985713 -0.021601943
-37.102062 4.9842143 -0.038881838
-35.093132 4.9738975 -0.054013476
-33.111343 5.1180129 -0.066498682
-31.011082 5.745841 -0.018106947
-28.886848 5.8288693 -0.010228157
-27.059444 5.8962274 -0.010228157
-24.759798 5.7818236 -0.010228157
-23.038233 5.6275439 -0.010228157
-20.945156 5.723846 -0.010228157
-18.908966 5.6198139 -0.010228157
-16.94511 5.58672 -0.010228157
-14.984154 5.6413627 -0.010228157
-13.150913 5.522655 -0.010228157
-11.061282 5.5597496 -0.014295954
-8.6332026 5.4389935 -0.081621654
-6.8421783 5.2191133 -0.086704291
-4.9073873 5.0544629 -0.067351915
-2.825964 4.9494123 -0.040045947
-0.93577951 4.8262568 -0.018577499
0.78555375 4.8556814 -0.031016242
3.0011718 5.0001721 -0.025967928
5.0652828 4.9792805 -0.024875816
6.8709269 4.9082799 -0.044643629
8.8768511 4.5954266 -0.13284138
10.112699 4.5918241 -0.073561482
13.787269 4.7263675 -0.82144284
14.149002 5.2047596 -1.0305179
-122.30532 6.848927 -0.81635064
-120.41155 6.2128959 -1.9430854
-118.23168 7.0402884 -0.10119594
-117.09762 7.1737766 -0.063448735
-114.73857 7.0794458 -0.01308157
-112.87128 7.0798421 -0.011292586
-110.99327 7.2027426 -0.013784747
-109.02248 6.9759831 -0.021039216
-107.36687 7.0054488 -0.027295014
-105.39577 6.8876548 -0.01895831
-102.97322 7.4334149 -0.010228157
-101.17697 7.4983234 -0.010228157
-98.712303 7.4276576 -0.010228157
-96.980476 7.3088684 -0.010228157
-95.304527 7.2565451 -0.010228157
-93.242294 7.1643238 -0.010228157
-90.956215 7.0734539 -0.010228157
-89.218674 7.0725055 -0.010228157
-86.860153 7.0450354 -0.010228157
-84.986465 7.0376568 -0.010228157
-82.78537 7.0112467 -0.010228157
-80.983963 7.049324 -0.01356149
-78.950737 7.2627697 -0.038672604
-77.231453 7.1091814 -0.011371014
-74.813759 7.0988593 -0.03534786
-72.921318 7.1667995 -0.029478118
-70.858795 7.3599453 -0.018362585
-69.12439 7.3191652 -0.010286184
-67.357628 7.0769744 -0.014520395
-64.563332 7.1974611 -0.035718091
-63.252617 6.9701881 -0.015493427
-60.869308 7.1569071 -0.016321355
-59.002712 7.4925609 -0.15454073
-57.089458 7.5900517 -0.46152335
-55.227039 7.462863 -0.40199539
-53.106983 7.341466 -0.29417193
-50.845264 7.2196555 -0.10457826
-48.737659 7.1608644 -0.025527708
-47.124321 6.8791652 -0.014175486
-45.105091 6.6148734 -0.15762821
-43.17675 6.8299713 -0.011339268
-40.649632 6.9948287 -0.010228157
-39.054359 6.6919484 -0.013546642
-37.138783 6.4686918 -0.029595526
-35.113129 6.3190637 -0.057905443
-33.022839 6.717031 -0.043599918
-30.648979 7.0502157 -0.010995651
-29.721157 7.3268938 -0.011371014
-27.562302 6.8943238 -0.010228157
-24.553072 6.796247 -0.012151235
-22.687511 6.8641787 -0.010228157
-20.934931 6.8416915 -0.010228157
-18.307192 6.7329917 -0.053783715
-17.294781 6.7539763 -0.013411548
-14.795275 6.7202687 -0.010228157
-13.384473 6.9605103 -0.010228157
-10.952301 6.5843234 -0.010228157
-8.7696705 6.5511661 -0.010228157
-6.4644794 6.4869976 -0.010228157
-5.2895207 6.7394037 -0.026021807
-3.1149118 6.3998675 -0.041392829
-0.60283971 6.2596049 -0.017158143
0.84383142 6.376359 -0.042091366
3.0388708 6.2930646 -0.02815613
5.0530601 6.2886176 -0.023063885
6.7499294 6.513555 -0.026587987
9.1168079 6.3064961 -1.2165385
10.991796 6.2889771 -1.0659556
12.942958 6.2694826 -0.97700751
14.166384 6.1677775 -1.1264901
-122.35395 8.4595146 -1.010208
-120.9671 8.9146547 -1.1213897
-118.94032 8.863677 -1.123313
-117.17722 8.5244732 -0.4179346
-114.75436 8.6206293 -0.07746695
-112.80862 8.4663191 -0.025937682
-111.03648 8.3827229 -0.023130609
-108.95065 8.3939009 -0.032802839
-107.58504 8.3388824 -0.033298314
-105.58053 8.4718246 -0.049228139
-86.355629 8.1076574 -0.010228157
-83.1623 8.0143232 -0.050228156
-79.812302 8.0143232 -0.010228157
-67.228027 9.0021973 -0.010228157
-64.10228 8.7188377 -0.016841851
-63.317101 9.0599899 -0.013112932
-60.552078 8.3165417 -0.013740608
-59.285442 8.835413 -0.37352714
-57.244736 8.8447304 -1.3634537
-55.876419 8.9778528 -1.8666989
-50.56638 8.9428473 -0.35866037
-48.647404 8.7260866 -0.027993815
-47.559227 8.7780809 -0.011382916
-44.774921 9.062007 -0.43485767
-42.468342 9.0423565 -0.010313627
-41.202301 8.4584618 -0.011607467
5.9676991 9.9943237 -0.050228156
6.4664521 9.0375328 -0.039522037
-114.63596 11.673587 -0.010228157
-113.88233 11.761341 -0.014438683
-67.392136 10.847569 -0.010574477
-65.528961 10.399273 -0.012282535
-62.99918 10.164563 -0.013389449
-60.428013 10.137181 -0.027371015
-58.649872 10.200231 -0.34962502
-57.044247 10.221389 -0.56629479
-54.833839 10.21012 -0.73778838
-52.916893 10.150949 -0.73084497
-51.589634 10.136906 -0.69431782
-49.077354 10.243474 -1.3990417
-46.921108 10.215125 -1.5802283
-44.812302 10.190113 -1.7197016
-42.604527 10.53804 -0.010622523
-41.287281 10.440122 -0.017447086
5.8130298 10.72067 -0.060288023
6.154099 10.346724 -0.05002813
-114.41937 12.935806 -0.015337856
-113.82109 12.958956 -0.016581744
-67.327087 12.990246 -0.010228157
-42.453671 13.023923 -0.010228157
-41.010918 12.441776 -0.010228157
5.1932554 13.069322 -0.079950362
6.8537788 13.440599 -0.21179678
-114.41502 15.072903 -0.041795734
-113.79771 14.830346 -0.03724568
-67.604012 15.535948 -0.010228157
-65.451645 15.206303 -0.010255858
-42.775517 15.245375 -0.010228157
-40.561424 14.999629 -0.0649269
-114.37944 16.970751 -0.042521734
-113.93659 17.053371 -0.045466255
-67.052032 16.810106 -0.17322125
-65.147217 17.622093 -0.11940462
-42.404472 16.88838 -0.010228157
-41.140999 16.599239 -0.68052095
-114.42242 19.277767 -0.066992968
-113.87719 19.393297 -0.066638395
-67.178078 19.026428 -0.010228157
-64.933777 18.747383 -0.011150143
-42.223492 19.053724 -0.010228157
-114.50098 20.02099 -0.034228161
-113.9823 20.014324 -0.030228157
-67.163582 20.930365 -0.010447937
-64.732819 21.603981 -0.097007811
-42.188274 21.105965 -0.010228157
-67.116295 22.915819 -0.010228157
-64.847954 22.606153 -0.01379459
-42.225853 23.036304 -0.017554887
-41.9823 23.682016 -0.010228157
5.5125141 22.27136 -0.19615404
6.0176988 22.307657 -0.24356151
-67.073891 25.06958 -0.010228157
-64.784584 25.223877 -0.075601287
-42.513992 25.089142 -0.028894812
-41.865463 25.552896 -0.010228157
-66.557648 27.309399 -0.030361477
-65.14106 26.921314 -0.046846181
-42.33662 27.047655 -0.025403583
-41.664978 27.032637 -0.017270409
-39.9123 27.094324 -0.010228157
-68.638443 29.327559 -0.013368502
-67.015274 29.224806 -0.017740499
-65.260712 29.303188 -0.03067198
-42.516491 29.13299 -0.010228157
-40.918434 28.614073 -0.096253097
-38.780773 29.088797 -0.017689368
-68.630379 30.839699 -0.010420809
-67.476822 30.89345 -0.013844484
-65.017586 30.902697 -0.016458193
-42.502644 31.021248 -0.010228157
-40.940857 31.199062 -0.037698027
-38.757595 30.963037 -0.014039243
-37.976295 31.551922 -0.010628156
-68.797119 32.907482 -0.17914878
-67.417091 33.175457 -0.18421263
-65.211571 32.957649 -0.034663968
-42.30555 33.165897 -0.010228157
-40.726921 33.086433 -0.060243558
-39.082447 32.514206 -0.091549709
-37.903282 33.075428 -0.26255909
-69.260597 35.140545 -0.68076843
-67.160088 35.066189 -0.40917569
-65.404953 35.114899 -0.031242667
-42.259975 34.783119 -0.010228157
-40.550976 35.10297 -0.03795936
-39.533817 35.378754 -0.76564127
-37.821033 34.998642 -0.74774384
-69.048775 37.286598 -0.61761004
-66.929184 37.107922 -0.2852211
-65.501213 37.037968 -0.024016693
-42.22084 36.789444 -0.010228157
-40.381931 37.085979 -0.017116372
-39.175884 37.302151 -0.38728639
-37.806519 37.02013 -0.75735176
-68.795509 38.710972 -0.43561503
-66.95108 38.485764 -0.17731486
-65.161346 38.884205 -0.014287277
-42.213215 39.223251 -0.013398408
-41.1548 38.938438 -0.01056999
-39.009426 38.239536 -0.039335061
-37.803497 38.408916 -0.50631368
-68.743988 40.854088 -1.5851632
-67.628937 40.844246 -1.4753184
-65.378403 40.340309 -0.011574958
-42.093468 40.243145 -0.010228157
-41.531681 40.20723 -0.010228157
-38.782948 40.332344 -1.6472291
-37.811535 40.262325 -1.6632779
-55.9823 -19.510677 1.9597719
-55.742302 -16.565676 1.8097718
-52.971764 -14.525671 0.82497168
-114.1023 -12.042343 1.8097719
-55.558964 -12.065677 1.2464385
-52.916409 -12.441811 0.75744903
-56.461826 -10.240913 1.8735815
-54.336815 -10.355261 0.92463553
-53.134499 -10.808004 0.97534525
5.5570183 -10.261361 1.8536353
-114.09018 -8.7935562 1.843105
-113.9823 -8.7485342 1.6183434
-56.361927 -8.5865717 0.91692752
-54.908669 -8.9869585 0.48440096
-53.267197 -8.743577 0.74742138
5.0217056 -8.795619 1.0832267
7.4963379 -9.8793116 1.4593174
-117.08784 -7.0201492 0.7796365
-114.78032 -7.1804996 0.75312525
-113.81104 -6.8195405 1.1421577
-56.326042 -7.020597 0.86891448
-55.306011 -6.6878486 0.50339603
-53.011272 -6.8761301 0.75761932
4.9478149 -6.890902 1.1938405
6.1032014 -7.1832776 0.91236115
-117.47746 -4.8748941 0.75104082
-114.35797 -5.0922284 0.60487086
-113.97205 -4.5634604 1.0249104
-56.266006 -4.9925985 0.79225081
-55.337723 -5.0333524 0.65203768
-52.942898 -5.0280781 0.80321425
5.0857291 -4.8950105 1.0718977
6.2540612 -4.3262835 0.0099233491
8.176219 -4.0893793 1.5994016
-117.325 -3.0121677 0.77666891
-114.70853 -3.1071453 0.29762462
-113.97176 -2.7884991 1.0437113
-56.227184 -3.0511441 0.68660879
-55.366035 -2.9706538 0.76634753
-52.890987 -2.968909 0.78858614
1.6501466 -2.0057294 0.93727195
3.576112 -2.0300639 1.0299064
5.0059361 -2.1117704 0.94814837
6.9846644 -2.2211978 0.81676513
8.7748375 -2.1908739 0.96673459
10.839327 -2.1917181 1.2533638
12.644016 -2.1627548 1.2780762
-117.39682 -0.92831784 0.75906277
-114.69178 -0.70922798 0.38483807
-113.9541 -1.1477597 0.9964729
-56.178017 -1.0123856 0.525406
-55.323044 -1.0272088 0.79199678
-52.821625 -1.0287194 0.80831575
-2.0119305 -0.94863945 1.1601421
-1.3682908 -0.8592186 0.90531605
1.1523929 -1.5981221 0.66105461
2.8696783 -1.6953807 0.66809183
4.889318 -1.455573 0.16120853
6.8919249 -1.1951729 0.023773992
8.9589281 -0.46549478 0.31770039
10.435519 -0.25238642 0.22288862
13.541599 -0.49907333 1.1534076
14.128459 -0.10404089 1.45284
-122.01543 1.1967517 1.0310878
-121.69006 1.2011244 0.97555715
-118.38776 0.41740993 0.98677266
-117.27469 0.53394276 0.54902971
-114.67721 0.6028434 0.415122
-113.10352 0.50359732 0.76150769
-111.00678 0.50223649 0.76264346
-109.02129 0.55260241 0.74929059
-107.51872 0.94137073 0.99596822
-56.150879 0.99981326 0.98411679
-55.159492 0.87769163 0.11130273
-52.793911 1.0124462 0.82622492
-2.0390086 0.75338233 0.9989484
-1.3240185 1.0916392 0.81228119
1.1704221 0.96881002 0.018736726
2.9538915 1.0604423 0.015813151
5.0622978 0.99238575 0.015774248
6.7937846 0.89043921 0.020542929
8.5941477 0.90925777 0.39052334
11.753878 1.7923306 1.9266685
13.412833 1.7940737 1.3730196
14.124775 0.74976522 1.1433495
-122.57049 3.0883904 1.0329105
-121.96542 2.2369504 0.89836979
-118.50322 2.1846349 0.40469322
-117.15936 2.8565133 0.32305908
-115.09002 3.0290561 0.019806338
-113.13548 3.0319207 0.016145758
-111.11327 2.8221214 0.021590235
-108.81155 3.2868304 0.017497174
-107.40921 2.9592717 0.90826046
-100.0726 3.8982756 0.99952531
-99.271828 3.8896267 0.97985339
-94.183052 3.7799683 0.99713629
-93.779968 3.7752275 0.98886186
-90.133575 3.6980529 1.003111
-89.737343 3.6938174 1.0219469
-84.261337 3.5863976 1.0590838
-83.881042 3.5868235 1.035396
-78.847008 3.4534349 0.96706706
-74.688286 3.2829204 0.95826155
-73.611359 3.2314532 0.92944241
-70.316574 3.3174691 0.95449322
-69.234894 3.398726 1.040439
-66.831192 3.9804001 0.7762506
-65.164436 3.9476101 0.86733627
-63.018764 3.9131885 1.0044363
-60.790394 3.7560098 0.98734778
-58.807281 3.3691235 0.97275925
-56.492863 3.3296645 0.98253536
-55.12402 2.9924903 0.01913509
-52.676292 3.0391586 0.83618921
-51.017902 3.6653607 0.96911985
-48.993549 3.6302843 0.98290402
-47.053326 3.5930526 0.98967832
-45.351032 3.5921824 0.97452998
-42.995392 3.207592 0.96951067
-41.157902 3.4509051 0.94933802
-38.982887 3.5128548 0.93225265
-36.956692 3.4728389 0.94549197
-35.039581 2.8638592 0.89851856
-33.023643 3.3625035 0.91717613
-30.953001 3.4160764 0.90310431
-29.009769 3.3820601 0.92654854
-27.077297 3.076483 0.89242774
-24.918453 2.9341404 0.85215002
-23.00238 3.0869765 0.78528887
-21.027643 2.881402 0.75988954
-18.965178 3.1922069 0.83380431
-16.991613 3.1661053 0.81517082
-15.052085 3.1544254 0.78657901
-13.0159 3.1805384 0.82971907
-11.055899 3.063009 0.78609645
-8.9349689 2.7432065 0.69297111
-6.9957409 3.1063614 0.73137933
-4.9823623 3.0501256 0.72680575
-3.0438223 3.0831819 0.70496708
-1.2606725 3.0702205 0.76284707
1.0217307 3.0806117 0.016179673
3.0637856 3.1033137 0.020054998
4.9912496 3.0934849 0.016641816
6.8968921 3.1252434 0.023458079
8.612195 3.0905366 0.37916642
11.646802 3.2107522 1.5855577
13.03544 2.694401 1.3774076
14.174993 2.9108763 0.79806411
-122.44871 4.8951602 0.95582628
-120.6431 5.1469345 1.7198943
-119.9823 5.6593237 1.7247719
-116.88115 5.0859499 0.25909555
-115.05679 5.0991426 0.019795695
-113.12593 5.0021152 0.018428361
-110.88474 5.3787937 0.015382965
-108.98666 5.1056952 0.01426439
-107.14849 5.2105002 0.84953856
-104.99916 5.0262961 0.70682943
-102.99367 4.9916954 0.71576828
-100.98798 4.9448838 0.72868621
-98.62085 5.1763573 0.4453651
-96.990479 4.8796072 0.73144603
-95.087219 4.8487363 0.72645587
-92.888344 4.8093076 0.70971876
-91.115746 4.7382374 0.69552606
-88.849289 4.7080774 0.68836367
-87.032089 4.6355605 0.7116456
-85.137589 4.6635513 0.66595495
-82.961601 4.5891638 0.70381534
-81.008087 4.5458841 0.72200578
-79.174019 4.9229069 0.27043048
-76.978523 4.4774151 0.72006458
-75.24424 4.6793942 0.42528567
-72.773064 4.5181265 0.54277986
-71.182785 4.4978752 0.56429839
-68.720367 4.6889281 0.38065636
-67.019661 4.5801744 0.62124181
-64.828705 4.7342291 0.82590437
-63.065712 4.926599 0.14439349
-60.880569 5.4721351 0.014548001
-59.025227 4.9461265 0.017265655
-56.9174 5.0213599 0.015706168
-55.185955 4.9998255 0.023785958
-52.911297 5.0043449 0.021094218
-51.07951 5.176198 0.015626991
-49.140446 5.4690862 0.015450327
-46.71587 5.3858347 0.014621051
-44.791824 4.4715896 0.77053702
-42.902664 4.817297 0.024838604
-41.10619 4.9721975 0.020003458
-38.993122 4.4540977 0.017762648
-36.985378 4.3928294 0.015468508
-34.998116 4.471765 0.01750624
-33.002434 4.5569892 0.018513594
-30.934732 4.6328039 0.020379653
-28.992004 4.6646199 0.019984547
-27.020306 4.6522188 0.019095918
-24.990263 4.7542682 0.017932681
-22.99095 4.8981686 0.018402983
-21.022724 4.8521504 0.020898033
-18.968969 4.9469433 0.020685101
-16.963343 5.0368252 0.020330958
-15.032727 5.0565886 0.02101917
-13.031239 5.1144433 0.020523688
-11.017131 5.1579237 0.021728115
-8.9735203 5.2830853 0.021441227
-6.9782872 5.3417344 0.021381194
-4.9818068 5.4119601 0.021908173
-3.04391 5.4838181 0.021196
-0.90812743 5.0772419 0.74534452
1.1915025 5.0134683 0.022114124
2.9442368 4.9478869 0.019917479
4.9989934 5.0056109 0.012125894
6.944314 4.9180069 0.022435511
9.1011209 4.7123084 0.29738835
10.862253 4.7933307 0.88432121
13.690206 4.7953706 1.4793369
14.164475 4.9614191 1.5768846
-122.37068 6.9304805 1.0135161
-120.64954 6.7521892 1.3923659
-118.79162 7.3086495 0.6834659
-117.07244 6.9875631 0.2151881
-115.0073 7.0010252 0.026884444
-113.09512 7.146697 0.055963837
-111.09544 7.0943074 0.017624151
-109.02205 7.5398273 0.022469914
-107.14479 7.4048615 0.85422421
-104.98531 7.6359015 0.025945401
-102.99924 7.4348993 0.025721962
-100.94633 7.2414832 0.025936404
-98.985947 7.3922715 0.027286408
-96.983948 7.6109152 0.02899519
-95.002457 7.5834098 0.028688168
-93.003654 7.5380907 0.02866043
-91.029091 7.502459 0.025054378
-88.961845 7.4942994 0.027440416
-87.003479 7.4775839 0.024450157
-84.950172 7.5649157 0.29611707
-83.011665 7.6112733 0.47176099
-80.939575 7.6203594 0.5689528
-78.834816 7.7715583 0.60081446
-76.919945 7.7945933 0.72315985
-75.01004 7.7184629 0.73809338
-73.011948 7.6806421 0.76446462
-70.883034 7.6761127 0.80817336
-68.984604 7.570097 0.71995801
-67.189476 7.562367 0.58556867
-64.916725 7.2856216 0.80794871
-63.270176 6.9733281 0.32513523
-60.987076 7.3165307 0.15521322
-59.151505 7.5666666 0.30966818
-56.976025 7.445735 0.36908102
-54.946663 7.3199863 0.55716407
-52.98222 7.3935108 0.69526666
-50.997231 7.5216484 0.64103174
-49.311718 7.3108373 0.26482499
-47.189026 7.0414553 0.016092235
-44.428787 6.9412694 0.82880664
-43.097782 7.120399 0.75401694
-40.890594 7.207931 0.7152375
-39.020023 6.9065428 0.70221686
-36.949554 6.90238 0.71116132
-35.027847 6.8963156 0.74482661
-32.981365 7.1039648 0.70540923
-30.935934 6.9521189 0.72775757
-28.994091 6.9359345 0.73547989
-27.003334 6.8493652 0.74863887
-24.949604 6.9379387 0.72390521
-23.023121 6.8019519 0.75544798
-21.036734 6.9170432 0.74269533
-18.968288 6.7106738 0.79238528
-16.971798 6.8808141 0.77640396
-15.045775 6.644372 0.79747325
-13.037645 6.8637285 0.77495259
-11.039051 6.5691576 0.82952815
-9.0253658 6.5410328 0.8433286
-7.0143628 6.5272212 0.84710169
-4.9799485 6.7363863 0.81130159
-3.04726 6.4645591 0.88578993
-0.97845083 6.3535376 0.91626143
0.97677439 6.4388113 0.89803386
2.9299948 6.377059 0.88530016
5.0025001 6.4246221 0.90909147
7.0270934 6.4787116 0.74150306
8.9797449 6.3377366 0.88593084
10.60681 6.3105206 1.178574
12.965264 6.2923508 1.2305111
14.197831 6.1901336 0.74315012
-122.31262 8.3620272 1.320894
-121.33527 8.6952801 1.4880563
-118.89426 8.6320372 0.88566357
-116.78402 8.7579699 0.82621509
-115.12707 8.8434315 0.7584945
-113.34827 8.597393 0.8310886
-110.92912 8.6319752 0.86408335
-108.89989 8.555377 0.86117333
-107.09547 8.4928846 0.90161645
-105.0451 8.4640474 0.85413396
-103.07127 8.6916847 0.81717515
-100.9427 8.4190807 0.89464623
-98.919991 8.6609459 0.82736862
-96.996727 8.3405552 0.91077161
-95.003296 8.5752983 0.85582137
-93.020927 8.2662945 0.92878968
-91.086105 8.2444553 0.92121232
-88.969025 8.1811228 0.9425655
-87.029419 8.4282885 0.88664287
-84.979012 8.1180849 0.92800605
-82.98288 8.0806999 0.89232004
-81.022369 8.0459938 0.85996479
-79.357765 8.0214491 1.0493008
-77.754585 8.0143309 1.5386244
-75.471115 8.0263233 0.2625719
-72.949814 8.0953236 1.4852718
-70.759445 8.1143236 1.2640575
-69.872299 8.0243235 0.28977185
-67.548325 8.9201384 0.81061333
-65.086555 8.9523802 0.92952478
-62.836552 8.942153 0.022073217
-61.037113 9.0579071 0.073974282
-59.701698 8.1615973 0.072802126
-56.217453 8.8321161 1.8968219
-54.972481 8.8372288 1.7640823
-52.966286 8.8617516 1.3738273
-50.951328 8.9228859 0.77216536
-49.406528 9.0119343 0.18822227
-47.003605 8.8156414 0.092610314
-44.67506 9.1658649 0.83720827
-42.872093 8.9610319 0.82573587
-40.965382 8.9956064 0.86190361
6.9931602 9.0590267 0.71800715
-114.70572 10.855874 0.32075444
-113.71645 11.179897 0.66478115
-67.595779 10.973071 0.85313082
-65.547752 10.874154 0.88778096
-62.9655 10.297247 0.90824157
-61.120781 10.281254 1.1697344
-58.82452 10.259126 0.98070133
-57.073597 10.265574 1.0373764
-54.837124 10.216685 0.98065597
-52.962261 10.158236 0.79241049
-51.033165 10.103937 1.1608425
-48.864182 10.05829 0.97745067
-47.094513 10.040017 0.92117006
-44.864113 10.018741 1.0756233
-42.823853 11.01207 0.83769202
-40.878975 11.005887 0.86709064
5.2143655 11.904324 0.7531051
7.4726992 10.659324 1.1947718
-114.89217 12.762288 0.59071982
-113.64108 13.367859 0.98627281
-67.557571 12.992717 0.88133818
-65.644669 13.003692 0.85433835
-42.761566 13.008537 0.85197341
-40.811623 13.020481 0.87799138
3.8115973 13.544494 1.3785855
5.2033062 13.009072 1.061048
6.9676905 13.513602 1.3848873
8.3020678 13.437548 1.5398866
-114.82597 15.501599 0.99280953
-113.72204 14.994148 0.99300647
-67.689835 15.072551 0.83665842
-65.401558 15.05726 0.86013091
-57.627296 14.804323 0.64477187
-42.923073 15.035146 0.851906
-40.495045 15.024044 0.82369417
6.6376991 14.814323 0.90977186
-114.40992 17.160202 0.071242392
-113.8823 16.054323 0.029771844
-67.806274 16.979877 0.78182679
-65.164131 17.020834 0.7338106
-63.422302 17.974323 1.4297719
-61.325481 17.879921 1.9524386
-46.676094 17.925039 1.9559622
-44.622299 17.994324 1.4097718
-43.004169 17.012327 0.73563033
-40.346992 17.000946 0.76462054
-114.6321 19.915955 0.90916991
-113.83055 19.971552 0.89442319
-67.77951 18.992228 0.78724128
-65.011856 19.00173 0.56989527
-61.309624 18.5319 1.9412943
-46.613094 18.449581 1.9412912
-42.982197 19.023232 0.66733646
-40.272995 19.006945 0.78081745
-114.38502 20.026354 1.0323375
-113.91736 20.0215 1.1134453
-67.723763 20.989388 0.78460819
-65.039787 20.97534 0.66271788
-62.689793 21.751825 0.90977168
-61.244038 21.700872 1.6283411
-46.601109 21.394564 1.876949
-42.895901 20.992996 0.63097787
-40.208984 21.015841 0.80125219
-67.676544 22.989035 0.77381164
-64.985168 22.985132 0.63735175
-62.683426 22.49155 0.90171599
-61.221027 22.324917 1.6116595
-46.557407 22.328838 1.9538902
-42.78257 23.016365 0.73807234
-40.14024 23.023712 0.74607873
-39.978699 23.866241 1.823452
5.4379506 22.278116 0.9158476
6.110199 22.334322 0.86893845
-67.65303 24.996851 0.77606499
-64.902252 24.968306 0.60685295
-63.920139 24.992702 1.3546367
-61.189693 25.427763 1.9331479
-46.352711 25.50209 1.9454236
-42.833576 24.987469 0.59480155
-40.27763 25.007294 0.51106584
-39.957211 25.048199 0.95539361
-67.517616 27.069569 0.83662909
-64.916245 26.985441 0.73742652
-61.178535 26.973221 1.5809871
-46.263012 26.147814 1.8791698
-42.592571 27.003597 0.81833512
-40.476158 27.273561 0.6526894
-39.913929 26.923582 0.97384769
-70.146072 28.655874 1.3072518
-68.809814 28.999336 0.81381166
-67.244171 28.797459 0.74050009
-65.10231 28.922512 0.75942785
-63.597778 28.666845 1.3404838
-61.490456 28.747736 1.2845544
-59.363167 29.190014 1.0798545
-48.051777 29.185871 1.0249403
-47.268078 28.391415 1.1763506
-44.263523 28.717691 1.5026259
-42.531006 29.015129 0.76673293
-40.888786 28.773003 0.40867648
-38.688694 28.737055 0.73009878
-37.959812 29.325741 1.6051686
-69.143219 31.05192 0.67955697
-67.147148 30.931574 0.021980718
-64.734695 30.951712 0.53949821
-63.930504 30.435131 1.0375268
-61.327652 31.307419 0.89754969
-59.306091 30.966375 0.86749685
-48.015812 30.599367 1.2057714
-47.083691 31.303942 1.0181222
-45.965458 31.142748 0.87398237
-42.649315 31.017672 0.56659299
-41.029236 30.906094 0.020735288
-38.738403 30.923616 0.49281609
-37.965462 31.521603 1.0636332
-69.221077 32.816422 1.0027158
-67.389282 32.941761 0.41033703
-64.890518 32.953846 0.78096092
-61.042427 32.820312 0.72666931
-59.450428 33.257412 1.4062319
-52.3223 33.694324 1.2497718
-48.190777 33.361515 1.2314711
-46.593151 32.644009 0.86298954
-42.403107 33.048447 0.86666656
-41.032066 33.034451 0.018918546
-39.823696 32.998222 0.49590766
-37.909744 32.872192 1.2485819
-69.289818 35.069992 1.2952811
-67.259964 35.008854 0.40892527
-64.842087 35.018909 0.79601657
-59.190292 34.122326 1.7764384
-42.330009 35.004852 0.88882637
-41.141487 35.036407 0.018639164
-39.744408 35.066704 0.48352075
-37.820381 34.977608 1.5334166
-69.116898 37.221195 1.1715521
-67.165329 37.111858 0.37305671
-64.819626 37.041821 0.79640204
-42.260681 36.978897 0.91207582
-41.131794 37.029461 0.022443606
-39.409035 37.179771 0.45239606
-37.765518 37.25761 1.288348
-68.923004 38.822285 0.74917418
-67.172501 38.674267 0.16973436
-64.759575 38.882057 0.72620726
-63.885441 39.887074 1.085979
-42.330166 39.002266 0.86773556
-40.921814 38.980679 0.021452613
-39.309193 38.88979 0.019769622
-37.737347 38.580208 0.90569311
-68.651718 40.708279 0.89580834
-66.949142 40.71624 0.83638585
-65.24543 40.650715 0.83777046
-63.826698 40.328049 1.0426116
-46.660728 41.901695 1.7429298
-42.260735 40.258415 0.98523027
-40.85194 40.501575 0.88365781
-39.543316 40.325546 0.94170022
-37.838623 40.314949 1.5539382
-46.646317 42.204098 1.6351049
-56.022297 -20.292343 3.6697719
-54.841534 -20.334904 3.7366948
-53.836918 -20.273367 3.7928481
-56.002296 -19.545677 2.6372719
-55.010998 -18.834627 3.6680901
-53.771229 -18.908415 3.7689915
-54.815556 -16.893015 3.7650883
-53.793327 -16.991974 3.7683246
-56.24247 -14.485168 3.7831583
-54.838341 -14.900221 3.7810776
-53.61673 -14.974064 3.6551998
-116.25697 -12.07501 3.755105
-114.67268 -12.367538 3.7263422
-56.313141 -12.799899 3.6073732
-54.872509 -12.900972 3.7948227
-53.432671 -12.835517 3.5524249
-116.17891 -11.170003 3.7675335
-114.77966 -10.865766 3.7302895
-56.398167 -10.715407 3.0143864
-54.783203 -11.127254 3.8154109
-53.306267 -10.977277 3.4191165
5.4783964 -10.269249 2.7617407
-116.0023 -9.9656773 3.7897718
-114.76829 -8.9237576 3.4596248
-113.8623 -9.119009 2.1497719
-56.343796 -8.6801977 3.0314674
-54.909527 -8.8067961 3.334877
-53.236668 -8.6932125 3.1344912
5.1746602 -8.9275646 3.009917
7.4661331 -9.9098139 2.7599154
-116.93291 -6.9609604 3.2221658
-114.95333 -7.0837264 3.3553832
-113.85316 -6.7562537 2.9714568
-56.303486 -7.0322056 3.0743761
-55.090668 -6.9161406 3.5930753
-53.105335 -6.8769321 3.2315724
4.8374228 -6.9023256 2.5141125
6.1349182 -6.7390289 3.3791921
-117.13811 -4.8814764 3.2464633
-114.71416 -5.0945563 3.493638
-113.97256 -4.6560326 2.9273493
-56.258804 -4.9727421 3.3812575
-55.08923 -4.9762373 3.5790083
-53.072514 -5.0087566 3.2355552
5.2624474 -4.7990351 2.9687791
6.3338461 -4.6681504 3.3532796
8.1776981 -4.1036758 2.125772
-117.137 -3.0049505 3.2892218
-114.97818 -2.9902258 3.7477257
-113.95807 -2.8891056 2.853374
-56.238144 -3.092814 3.3878438
-55.125362 -2.984587 3.4829829
-53.060009 -2.9725153 3.2785852
1.6403244 -2.0062008 2.8599362
3.3015361 -2.0231872 2.9407849
4.971396 -2.1286161 2.8762681
6.9203076 -2.1822019 2.8859353
8.8740721 -2.1692247 2.9301183
10.696132 -2.1890023 2.7484961
12.745026 -2.1592736 2.5492499
-117.14762 -0.95208776 3.2302949
-114.9034 -0.87829417 3.6640458
-113.93223 -1.1114566 2.8687086
-107.79897 -0.0056763361 2.9664385
-56.197079 -1.000659 3.4811718
-55.158028 -1.0156995 3.4289761
-53.02602 -1.0197971 3.2782054
-0.95065814 -0.85980803 3.1686139
1.1098441 -1.2458465 3.406945
2.9030757 -1.1466967 3.5511296
4.9754729 -0.94293553 3.7957706
7.0068612 -0.97362101 3.7973337
8.7961769 -0.9615584 3.7392168
10.75394 -0.72583371 3.4858811
13.227148 -0.48440337 2.6776848
14.129784 -0.098334134 2.45801
-122.02381 1.2384079 2.4788432
-121.04822 1.1680865 2.8172121
-118.69759 0.94168955 3.330045
-117.13139 0.81543547 3.4883065
-114.88204 0.9071902 3.666122
-113.07064 0.70740426 3.3347192
-110.98529 0.7305252 3.3932455
-108.99739 0.92483759 3.4602239
-107.63804 0.95046246 3.0001252
-56.176697 0.98120141 2.9359293
-54.979683 0.97630858 3.810739
-52.99345 1.0123217 3.2882481
-0.973252 1.0415066 3.2555857
0.99710691 0.99364519 3.7914574
2.9954734 0.98590678 3.7976646
4.9868994 0.99025238 3.8006725
7.0025096 1.0425735 3.7932487
8.333395 1.0143257 3.7919824
11.610636 0.90272516 2.9297976
12.885589 0.78784674 2.6065364
14.150597 0.57351595 2.2799616
-122.49923 2.9971001 2.5096405
-120.47231 3.2082701 2.887645
-118.92656 2.2070777 3.5686524
-116.76109 2.9573567 3.781369
-114.91632 2.9756546 3.7851787
-113.02438 3.0235336 3.7785878
-110.99994 2.9975982 3.7736154
-108.97305 2.9890869 3.7687204
-107.55063 2.9864037 3.0472622
-100.07348 3.8935826 2.0766857
-99.270493 3.890635 2.0758016
-78.847626 3.6736953 2.093935
-76.802299 3.7863235 2.809772
-74.711929 3.6161163 2.0549326
-73.603287 3.6019948 2.0543666
-70.311577 3.6083453 2.1553137
-68.945076 3.8611224 2.6016352
-67.027534 3.9543936 2.7489381
-65.245193 3.9238501 2.7785566
-62.97208 3.8988409 2.8576832
-60.885189 3.8463335 2.8950722
-59.093533 3.7761612 2.856446
-56.520355 3.3305569 2.9343615
-54.988552 3.0324647 3.8122818
-52.855289 3.0617115 3.2601986
-50.993076 3.6936159 3.0971808
-49.011219 3.659332 3.0609393
-47.108017 3.6123476 3.0158067
-45.319172 3.6217365 3.0234632
-42.885307 3.4882879 2.8088448
-41.068333 3.525264 2.8961971
-38.993271 3.5128944 2.9457374
-36.945103 3.4821827 2.9561706
-34.940666 3.3678186 2.7887335
-33.088383 3.4371042 2.9766068
-30.907482 3.4295805 3.058131
-28.991318 3.4011574 3.106096
-26.925758 3.2887156 2.9120231
-25.047779 3.2468693 2.8807578
-22.948475 3.2587321 2.9370301
-21.097534 3.2081952 2.8796928
-18.977716 3.265815 2.9997411
-16.978651 3.2485337 3.0063829
-15.053995 3.2350371 3.0194633
-13.065733 3.2339578 3.1141806
-10.951285 3.1745594 3.0486646
-9.0368729 3.0572419 2.9007375
-6.9921389 3.1670189 3.0901098
-4.9605217 3.1174901 3.0459318
-3.0371389 3.0936167 3.0323679
-1.0622196 3.0478997 3.2183084
1.0146128 3.0248144 3.7872822
2.9695711 3.0378091 3.802386
4.9713473 3.0394444 3.8052716
7.0520415 3.0320492 3.7911255
8.3595695 3.0579472 3.7867851
11.600171 2.818321 2.4122057
13.8217 3.1845157 3.5234194
14.197129 3.2409668 3.1536982
-122.30514 5.0601912 3.2338312
-120.28986 4.7086535 2.5158873
-119.98235 4.0955353 2.2770445
-116.61577 5.0048409 3.7826297
-114.98318 5.0014944 3.7828174
-113.05719 4.9541216 3.7775121
-111.01526 4.9810476 3.7789519
-108.97635 4.9974055 3.7758145
-107.26859 5.0517077 3.1154222
-104.99521 5.083128 3.0779161
-102.97575 5.0723877 3.0991099
-100.94187 5.0224152 3.0678651
-98.998817 4.935864 3.0007885
-96.980263 4.9865308 3.1185403
-94.960991 4.9487715 3.0904679
-93.020943 4.946177 3.1187563
-91.043175 4.9227757 3.1106462
-88.997719 4.8854532 3.1213903
-87.041809 4.8553181 3.1180646
-84.944778 4.8451228 3.1094663
-83.027382 4.8016891 3.1344824
-80.980072 4.8104787 3.1422782
-78.965149 4.7640343 3.1366756
-76.983078 4.7581582 3.1378443
-74.99157 4.7062974 3.1422534
-73.026787 4.7047362 3.1661165
-70.965462 4.7144232 3.1568828
-69.012794 4.9296098 3.3170249
-66.960747 5.1098986 3.3534458
-64.730759 5.0771222 3.1146176
-63.080605 5.1067109 3.6815763
-60.923702 5.076982 3.7728829
-58.972969 4.9370151 3.803791
-56.942966 4.967998 3.8057599
-55.020027 5.0225816 3.8040385
-52.981693 4.9782691 3.8033168
-51.045551 4.9576201 3.8011284
-49.06216 5.0357509 3.7954412
-47.069527 5.0651612 3.7974582
-44.854599 5.115592 3.3205414
-42.893051 5.0957255 3.3969874
-41.07457 5.0786676 3.4060082
-38.97374 5.0022173 3.4610236
-36.98605 5.0241313 3.3096306
-35.044586 4.988852 3.4572496
-32.977932 5.0279236 3.3322845
-30.951595 5.0195436 3.4561083
-29.004318 5.0012856 3.4610319
-27.040106 5.0118294 3.3787315
-24.967571 4.9938641 3.4652901
-23.005499 5.0239935 3.3883297
-21.038897 4.9961405 3.4648597
-18.959274 4.9983397 3.4148321
-16.968575 5.0053725 3.4493582
-15.062278 5.0100861 3.4599974
-13.04005 4.9970412 3.384351
-11.024459 5.0136199 3.4588072
-8.9745789 5.0005307 3.369349
-7.0149713 5.0091639 3.4583404
-4.9535298 4.9939976 3.4596841
-3.1283731 4.9788322 3.3615124
-0.97115833 4.8194218 3.1548002
1.0157717 4.9129739 3.7862062
2.9814115 4.8696737 3.7979023
4.9758611 4.8803725 3.795598
7.0130568 4.8982844 3.7824943
8.3649807 4.8768921 3.7848082
11.632053 4.269537 2.09904
13.839425 4.5016098 3.3036728
14.233568 5.0403657 2.8099372
-122.36562 7.1113877 3.147311
-120.34737 6.4698601 2.2303174
-119.87945 7.0200386 2.0440576
-116.648 7.021697 3.7766631
-114.98088 6.9841189 3.7734759
-113.02083 6.9841709 3.7727289
-110.99994 7.0196934 3.7755213
-108.87763 6.9812188 3.6941509
-107.29532 6.9893126 3.1895676
-105.00905 6.9885263 3.3867848
-103.01335 6.9715462 3.4688303
-100.90005 6.963583 3.3522992
-98.938835 6.9724832 3.4708917
-97.002029 6.9722056 3.4698923
-95.00119 6.9451194 3.4087887
-93.032562 6.9741077 3.4700849
-91.062233 6.9463243 3.3983543
-88.98008 6.964561 3.4683874
-87.027008 6.9556837 3.4661512
-84.955986 6.9575253 3.4215093
-82.994743 6.99159 3.4520667
-80.979713 6.9993486 3.4120827
-78.903809 7.0879469 3.3591456
-76.922234 7.2839751 3.1711221
-75.000626 7.2808461 3.1919165
-73.022758 7.2744589 3.2041442
-70.887062 7.36062 3.1158204
-68.992943 7.3044138 3.1415284
-66.962822 7.205544 3.0692537
-64.731575 7.0751262 2.9692547
-63.125042 6.9483147 3.6947734
-60.941246 7.0748248 3.8066726
-58.997456 7.1772223 3.7050221
-57.044552 7.1547322 3.4721315
-55.005711 7.0077229 3.4660742
-52.995258 6.9926152 3.5691428
-50.943363 6.9337234 3.7671227
-49.032757 7.0721579 3.7930667
-47.051514 6.9856725 3.7997837
-44.68272 6.8837347 3.1788342
-42.994362 7.0010386 2.9249697
-41.115799 7.0380454 2.9046714
-39.000408 6.8491168 3.0710003
-36.977562 6.7975359 3.1070383
-35.016426 6.7732577 3.0968907
-33.006512 6.8559484 2.9496713
-30.916641 6.789525 2.9799645
-29.042812 6.7817597 2.9633217
-26.992363 6.7394729 2.9839613
-24.994032 6.7480488 2.9302955
-22.999752 6.7053251 2.9711821
-21.100754 6.7211146 2.8996501
-18.946827 6.6381688 2.9564276
-16.995291 6.6682034 2.8806202
-15.033838 6.5921869 2.9458978
-13.112371 6.6415591 2.8586502
-11.061324 6.5452132 2.9890885
-9.0423355 6.5238214 2.9653001
-7.0043111 6.5117111 2.9397502
-5.0137701 6.5445104 2.8313355
-3.0759354 6.4636664 2.9150748
-0.94287592 6.4142866 2.9677982
1.0104438 6.4700656 3.0278943
2.936758 6.4418712 3.0679593
5.018919 6.4122586 3.0411382
6.9551177 6.4229393 2.9219806
8.9572678 6.3564873 2.9471345
10.931141 6.3320904 2.9708691
12.774661 6.3138323 3.1929266
14.229186 6.1950254 2.7802172
-122.41932 8.4478598 3.1086619
-120.87894 8.8814878 3.0091522
-119.12767 8.8612566 2.9512794
-116.69151 8.7219601 3.1504927
-114.98183 8.7320242 3.0331211
-113.06458 8.650959 3.105293
-110.92134 8.5844135 3.1165593
-108.91681 8.5835009 3.0896077
-107.22779 8.4810009 2.9721315
-105.04057 8.4972363 2.880672
-103.07212 8.5121489 2.8345008
-100.93732 8.4113846 2.9464073
-98.973747 8.4549828 2.7790961
-97.007484 8.3425179 2.9054744
-95.024292 8.3775177 2.7609417
-93.032562 8.2808771 2.871042
-91.087204 8.2467184 2.8101509
-88.983932 8.2072039 2.8285723
-87.027824 8.2404633 2.7004449
-84.968872 8.1459312 2.8087389
-82.992195 8.1094027 2.7921073
-81.010559 8.0672064 2.7790742
-79.107513 8.0274849 2.7464733
-77.645302 8.0143089 2.8310432
-70.458298 8.0903244 2.7977719
-69.562302 8.0343237 2.7497718
-66.917725 8.9277639 2.2916298
-64.6604 8.8777466 2.770875
-62.963909 8.9465914 3.8189502
-60.972137 8.9190502 3.7627447
-58.990562 8.8055305 3.2536063
-57.255302 8.8434639 2.4290297
-54.305267 9.3172865 2.4186611
-53.170094 9.4629812 2.1788964
-50.298965 8.8168116 3.7706957
-48.965042 8.852725 3.7984817
-47.057377 8.9578371 3.7983592
-44.85696 9.069356 3.3238938
-42.55545 8.9858656 2.2776847
-41.402126 8.9950304 2.2844121
5.9608469 9.8376942 3.4965146
6.3462582 9.6000624 3.5046329
-114.72746 11.485596 3.3935056
-113.80359 11.491563 3.2988439
-66.906792 11.039321 2.338809
-65.346794 10.846245 2.451385
-63.037701 10.318206 3.0659151
-61.002689 10.288183 3.0819573
-58.882191 10.255148 2.7539003
-57.295052 10.225062 2.476413
-54.861485 10.18533 3.3761947
-52.774796 10.127984 3.097621
-51.238712 10.125257 2.9383152
-48.967533 10.072176 2.8528845
-47.119934 10.041639 2.7980411
-45.045734 10.024604 2.9167905
-42.53447 11.012781 2.345957
-41.322441 11.025058 2.3610396
5.7521725 11.050768 3.4929314
6.3499994 10.542516 3.4967973
-114.49029 12.816161 3.5347145
-113.76511 13.101115 3.2491851
-66.905106 13.013602 2.5508041
-65.71804 13.042264 2.4646583
-42.532833 13.016953 2.5360546
-41.236252 13.034566 2.5741944
3.810426 13.565228 2.5734076
5.2207599 13.089382 2.9373853
6.8276219 13.411246 2.8897409
8.2666883 13.462419 2.4866257
-114.4969 15.520424 3.1226339
-113.75788 15.18632 2.9852054
-67.072868 15.076511 2.768003
-65.477776 15.128383 2.6747243
-51.252308 15.181465 3.3626289
-42.711372 15.060482 2.737098
-40.954311 15.047344 2.7835135
5.3539834 15.309178 3.2892003
-67.19651 16.97349 2.8407385
-65.297897 17.030687 2.7584271
-63.008236 17.916971 2.9938731
-61.411343 17.887917 2.6078248
-46.540333 17.907949 2.6524961
-44.980858 17.863199 3.0264547
-42.783714 17.009333 2.8075085
-40.889946 16.98316 2.835315
5.4296756 16.98139 3.6510894
6.1116118 17.176931 3.9549892
-114.43736 19.864433 2.2736206
-113.8726 19.860041 2.258343
-67.183281 18.973259 2.8318133
-65.174957 18.964043 2.8265173
-62.995926 18.483664 2.9936349
-61.408005 18.488935 2.6265569
-46.573811 18.491995 2.6502142
-45.037579 18.456831 3.03058
-42.804665 18.975397 2.8168595
-40.836891 19.0261 2.8372266
5.2972274 19.005978 3.6201665
6.1504989 18.95672 3.9425721
-114.37297 20.015659 2.0297718
-67.14151 20.993292 2.8387475
-65.210968 21.006723 2.7950866
-62.940437 21.757656 2.9978707
-61.321774 21.760935 2.5892944
-46.472862 21.602966 2.8163209
-44.965572 21.609932 3.0251884
-42.759109 21.006775 2.8195729
-40.844395 20.973402 2.8506277
5.2032681 20.772295 3.479646
6.1932545 20.52099 3.9364386
-67.117569 22.982204 2.8326714
-65.167938 22.968281 2.8084712
-62.955288 22.266211 2.9906085
-61.32053 22.262604 2.5916243
-46.487511 22.256659 2.6918676
-44.983566 22.223873 3.0324163
-42.676804 22.979465 2.7668591
-40.816879 22.957394 2.8770149
-39.976189 23.640635 2.4512403
5.232409 22.302448 2.7131577
6.4638424 22.411457 2.9446337
-67.098991 24.982857 2.8326211
-65.098824 25.0063 2.8225095
-62.921452 25.46946 2.9978244
-61.318035 25.484232 2.6494896
-46.378822 25.450424 2.6141346
-44.886528 25.439623 3.0494635
-42.740562 25.0159 2.8303142
-40.984493 25.044975 2.955282
-39.928894 24.902349 2.5712214
-67.066704 26.984224 2.8328531
-65.138565 26.974636 2.7750909
-62.918293 26.118408 2.981144
-61.303104 26.206577 2.6113985
-46.345768 26.093801 2.5975225
-45.297047 26.035744 3.044688
-42.530884 26.923025 2.6817827
-40.994419 27.048868 2.8367882
-39.884281 26.817923 2.5270483
-72.225296 28.771326 2.9957712
-70.678421 28.730152 2.502605
-68.740524 29.115479 2.7289922
-66.962402 28.94125 2.728945
-65.169258 29.020357 2.6936846
-62.978527 29.085779 2.839493
-61.106617 29.268263 2.9302838
-59.390099 29.290993 2.5919867
-48.065777 29.041283 2.6311958
-46.905987 29.012302 2.989552
-44.854816 29.001961 2.94225
-42.641819 29.125654 2.732264
-40.946163 28.88641 2.8611922
-38.858871 28.885141 2.7964618
-37.971703 29.455666 2.6299274
-68.887787 31.028694 2.8257658
-66.988365 31.017561 2.9817126
-64.94239 30.98877 2.8334315
-62.903549 31.038208 2.9587991
-61.076481 30.930485 2.946476
-59.407711 30.925674 2.6942906
-48.023357 30.780376 2.5983379
-46.90736 30.847115 2.9842913
-44.845081 30.929441 3.0067768
-42.737762 30.961798 2.8209925
-40.975376 30.997213 2.9839895
-38.98851 30.993134 2.9573388
-37.959255 31.185345 2.5236278
-68.882133 32.97438 2.8180838
-67.006813 33.002953 2.9879754
-65.160614 32.954613 2.8056223
-62.455902 32.230076 2.9419279
-60.915245 32.916164 2.9439681
-59.424385 33.455517 2.5490322
-48.13324 33.352913 2.5719013
-47.426071 33.257092 2.818258
-45.481152 32.28722 3.0179441
-42.37294 33.026546 2.6629128
-40.975395 33.021992 2.9786787
-39.035812 33.007042 2.978925
-37.896832 33.040871 2.5193102
-68.899933 35.012562 2.8060651
-66.961983 35.001286 2.9925396
-65.169037 35.035316 2.8420703
-59.183903 34.170433 2.521117
-42.313122 35.005589 2.6435204
-40.973125 35.024174 2.9708412
-39.040043 34.976215 2.9736528
-37.822475 35.003353 2.5386086
-68.867104 37.015221 2.790839
-66.958138 37.007679 2.9870813
-65.113571 37.005928 2.8233271
-42.254257 37.002476 2.6324296
-40.975613 37.011292 2.9707835
-39.103268 37.019375 2.9731805
-37.767128 36.98093 2.5417888
-68.774643 38.927322 2.8087738
-66.991028 38.976143 2.9761772
-65.072159 38.947155 2.7830844
-62.451145 39.650223 2.9593756
-61.695019 39.688446 2.9501824
-46.108013 39.951469 2.9983432
-44.640018 39.778614 2.9936438
-42.284523 39.030247 2.5739505
-40.926083 38.998684 2.9722941
-39.181446 38.888065 2.9698882
-37.744148 38.578407 2.5860054
-68.620193 40.625675 2.6862819
-67.014076 40.611183 2.7172446
-65.30825 40.57037 2.6911604
-62.856609 40.490112 2.8674965
-61.232651 40.833973 2.9501061
-46.594715 41.120003 2.7888637
-44.945042 40.485382 2.9931328
-42.340855 40.28014 2.555861
-40.841484 40.376068 2.5801466
-39.465477 40.306927 2.6061447
-37.81712 40.294453 2.5091777
-60.139801 42.27932 2.9572718
-46.650387 42.272476 2.5301158
-53.6623 -21.155678 4.0697718
9.2761917 -2.1419029 5.8580742
10.346589 -2.1478982 5.6712532
9.4132395 -0.21658498 4.5299673
10.495744 -0.22187352 4.4114885
13.519847 -0.58398384 5.3916187
14.126195 -0.084244795 5.3261924
-122.06444 1.4626004 5.2142544
-121.76283 1.2684417 5.4074163
-119.50299 0.35948506 5.7355785
8.6741505 0.93100411 4.5230689
11.552069 0.12244873 4.0584307
13.822927 1.7415445 4.9404821
14.149045 0.78182447 5.2048035
-122.56192 3.1334364 5.2665653
-120.69726 2.5376647 4.4571438
-118.99646 2.2055933 4.4136372
-117.42 2.9436176 4.455462
8.7171488 3.0864477 4.5462379
13.85439 3.0254705 4.6655483
14.210752 3.0254953 5.1225147
-122.47783 4.9686446 5.1209774
-117.33964 4.8467669 4.4755926
8.7482948 4.8373284 4.4662099
13.835421 4.2991157 4.8983369
14.249121 5.0525455 5.1636882
-122.44919 7.0184994 5.018857
-117.31335 7.1182261 4.4388766
-64.33857 7.8755665 5.5975614
-60.140736 7.8705039 4.3596597
-58.997261 7.8375878 4.3819556
-56.988106 7.7224855 4.5190129
-55.387856 7.6569796 4.6597719
-52.811539 7.747406 4.579289
-51.116913 7.8615518 4.4911551
9.3983021 6.3649855 4.8857074
10.991276 6.3429804 4.9385824
12.975343 6.3357992 4.9620137
14.20865 6.2220001 5.1804705
-122.48212 8.471694 5.0548925
-120.92092 8.8945513 4.9406118
-119.13155 8.8698874 4.9239693
-117.58707 8.7916164 4.8241873
-64.278206 8.7697916 5.6144438
-60.076778 8.5796146 4.2593284
-59.866047 8.7982788 4.1337247
-52.736618 9.1093216 5.5664163
-51.412235 8.8034954 4.9045715
-60.426308 10.322323 5.3441715
-58.417789 10.289256 5.2454691
-56.701313 10.2707 5.1399508
-54.896484 10.215072 5.0342073
-52.924725 10.163354 4.8882055
-51.673542 10.142962 4.6234674
-57.104301 14.756323 4.8997717
-51.255253 15.169617 5.0544782
6.4911604 17.363171 4.1132331
6.5783339 18.92321 4.1313586
6.6529365 20.432419 4.14501
6.7436996 22.430323 4.1077719
9.2796469 -2.1384437 7.3052268
